0.397613 -0.508134 1.891475
0.257300 -0.291310 1.198258
-0.151443 -0.909106 1.395693
0.250223 -0.351015 1.115818
0.291062 -0.349122 2.079789
0.422665 -0.436360 1.112509
0.243534 -0.402743 1.097957
0.173096 -0.911784 1.412949
0.418811 -0.222427 1.030945
0.441278 -0.201310 1.299135
0.382963 -0.922980 1.386847
0.436671 -0.422977 0.911338
0.414712 -0.240822 2.200334
0.374355 0.022464 2.047336
0.075599 -0.353257 1.084047
0.132541 -0.358855 1.049612
-0.129400 -0.201625 1.136071
-0.074242 -0.093597 1.172971
-0.153169 -0.404465 1.327554
0.146179 -0.889015 1.376154
0.201592 -0.343562 1.115143
0.275016 -0.360132 1.251502
0.292748 -0.275372 2.216199
0.165793 -0.493119 1.842240
0.373953 -0.030661 1.035051
0.278572 -0.309519 1.220857
-0.066796 -0.408824 1.391739
0.355979 -0.510392 1.929880
0.318191 -0.387398 1.701868
0.117048 -0.571617 1.803857
-0.129012 -0.918025 1.707676
0.075893 -0.314014 1.258036
0.177684 -0.315053 2.185536
0.381386 -0.324816 1.370528
0.423967 -0.087086 1.943645
0.185967 -0.323602 1.182803
0.234251 -0.271589 1.217829
0.402864 -0.287511 2.141546
0.051631 -0.353088 1.012950
0.274571 -0.662925 1.420935
0.260307 -0.594940 1.545229
0.004803 -0.336136 1.012316
0.041147 -0.657357 1.728684
0.050750 -0.656572 1.677318
0.386875 -0.419729 1.197827
-0.246792 -0.036876 1.020366
0.012764 -0.660148 1.745232
0.266768 -0.364970 1.252422
0.259839 -0.340992 1.235771
0.388299 -0.317299 1.637629
0.465894 -0.431086 0.927851
0.369640 -0.376246 1.461914
0.422469 -0.054539 2.212922
0.358791 -0.563795 1.303796
-0.143265 -0.104437 1.106368
0.421860 -0.435550 1.116124
0.432399 -0.259796 1.063550
-0.186290 -0.897286 1.730073
0.427246 -0.142222 1.314219
-0.139595 -0.203396 1.667105
0.410789 -0.327064 1.433968
0.372937 -0.830855 1.344326
0.339747 -0.175238 0.997562
0.391768 -0.426729 1.362657
0.334805 -0.170247 0.998838
0.345690 -0.092699 1.009588
0.356638 -0.899936 1.750686
0.349770 -0.136126 1.001138
0.108670 -0.355212 1.014207
0.072874 -0.356477 1.003557
0.309474 -0.462118 2.104620
0.749421 -0.127819 1.385238
0.213513 -0.348803 2.217871
0.025802 -0.307711 1.998828
0.394581 -0.551550 1.425609
0.391100 -0.308364 1.176266
0.305397 -0.381456 1.426476
0.449448 -0.146746 1.014664
0.150749 -0.219578 1.938030
0.203494 -0.346606 1.160887
0.142968 -0.645903 1.500986
0.284408 -0.246198 2.215200
-0.235458 -0.442761 1.370740
0.375796 -0.600106 1.409696
0.991039 -0.254805 1.575032
-0.254602 -0.939517 1.344948
0.408176 -0.140692 2.246911
0.340431 -0.090807 1.297202
0.380478 -0.328085 1.597313
0.352661 -0.317219 1.539286
0.387370 -0.343681 1.674115
0.293514 -0.354508 1.270710
0.189798 -0.320208 2.238201
0.272309 -0.265320 1.190045
0.282606 -0.336582 2.228848
0.434582 -0.441975 1.047622
-0.283684 -0.680153 1.310729
-0.238311 -0.443987 1.338826
0.406736 -0.191918 2.239677
0.416416 -0.439339 1.138995
0.188702 -0.418919 1.449814
0.162389 -0.270324 1.050138
0.389794 -0.283084 1.583057
0.146125 -0.216383 1.934063
0.411779 -0.560012 1.260406
0.348455 -0.326018 1.631453
0.368752 -0.500403 1.924480
-0.051185 -0.401214 1.355537
0.380994 -0.157168 1.858231
0.498249 -0.313401 1.196974
-0.197761 -0.902455 1.671853
-0.143519 -0.575349 1.771137
-0.068916 -0.895297 1.482108
-0.119684 -0.426176 1.415795
0.435222 -0.426011 1.061865
0.275796 -0.333964 1.205204
0.088000 -0.341349 2.094649
0.247627 -0.140783 1.267743
0.358679 -0.185440 1.680373
-0.213447 -0.202429 1.796600
0.402364 -0.310943 2.019112
0.279012 -0.364925 1.259158
0.316626 -0.370630 1.272425
-0.202231 -0.929620 1.373471
0.250616 -0.300475 2.230365
0.421677 -0.140763 1.931562
0.235112 -0.293259 2.231508
0.407895 -0.285529 1.605248
-0.269221 -0.197452 1.666357
0.414089 -0.137493 1.931544
0.369256 -0.396579 1.442045
0.183819 -0.453243 2.162697
0.253474 -0.383860 1.085104
0.184101 -0.841239 1.586063
0.321131 -0.262240 2.208168
0.172889 -0.658276 1.405084
-0.124999 -0.419881 1.350250
-0.641791 -0.494662 1.277864
0.354941 -0.919371 1.692722
0.378412 -0.304182 1.926187
0.059456 -0.265068 1.190643
-0.135376 -0.175867 1.902446
0.163488 -0.300192 1.090210
-0.124692 -0.469057 0.866850
-0.166737 -0.486940 0.874993
0.368569 -0.393979 1.439470
0.416389 -0.137705 2.247005
0.425858 -0.453903 1.009855
0.401383 0.018882 1.198729
0.077890 -0.584577 1.722150
0.227060 -0.227468 1.246893
-0.114427 -0.656071 1.806768
-0.168810 -0.659113 1.409539
0.136382 -0.333177 1.246397
-0.043737 -0.879614 1.708868
0.175872 -0.257141 1.229612
0.349598 -0.646300 1.382986
0.238214 -0.345655 1.153184
0.382294 -0.394723 1.397350
-0.057840 -0.670479 1.377646
-0.281510 -0.174783 1.645016
0.404310 -0.066374 1.309219
0.330523 -0.355912 1.442896
-0.344044 -0.990476 1.503884
-0.229517 -0.001559 1.068324
-0.238291 0.006132 1.069035
0.445740 -0.118844 1.088536
0.168030 -0.264869 1.091253
0.077969 -0.324091 1.082250
0.384952 -0.550123 1.480499
-0.226383 -0.558542 0.890840
0.080248 -0.328770 1.053880
0.360030 -0.438013 1.515576
0.274692 -0.536448 1.913557
-0.237140 0.036443 1.256324
0.173420 -0.650096 1.397819
0.127388 -0.190418 1.101870
0.409459 -0.286559 2.116630
0.384417 -0.298272 1.572630
0.251023 -0.361307 2.218478
-0.205060 -0.902820 1.713739
0.374691 -0.503415 2.028125
-0.129873 -0.154276 1.113393
0.026445 -0.299062 1.054440
0.434786 -0.561473 1.105783
0.396483 -0.901742 1.433485
0.319405 -0.499079 1.870842
0.104993 -0.303382 1.004623
0.372432 -0.586887 1.450667
-0.023198 -0.836229 1.354279
0.420422 -0.563412 0.907417
-0.265062 -0.008654 1.072497
-0.239713 -0.527281 0.887979
-0.219447 -0.467097 0.873396
0.176889 -0.853857 1.385922
-0.259358 -0.299337 1.454029
0.121602 -0.150533 1.069293
-0.101645 -0.192174 1.901151
0.267395 -0.397628 1.693493
0.358607 -0.386050 1.448751
0.424445 -0.411063 0.892845
0.398038 -0.458993 1.435104
0.420438 -0.410343 0.895527
0.319924 -0.381265 2.107062
0.191230 -0.362157 1.817698
0.216473 -0.290906 1.074735
0.039773 -0.351945 1.002692
0.006308 -0.062749 1.053757
0.345976 -0.087719 1.009192
0.434853 0.013641 1.158257
0.448711 -0.426560 1.061467
0.001523 -0.142373 1.144851
0.402361 -0.326197 1.435205
0.414269 -0.218344 1.055040
0.398564 -0.421114 1.104506
0.425755 -0.091936 2.048071
-0.299217 -0.937059 1.443470
0.414221 -0.531956 1.262555
0.304442 -0.296518 2.034987
0.373523 0.029084 1.178345
0.259989 -0.308351 1.232415
0.232401 -0.329270 1.175075
0.234266 -0.339428 1.112272
0.431091 -0.014712 1.052999
0.388041 -0.163347 1.855791
0.417513 -0.198786 1.399522
0.378484 -0.925250 1.720576
0.224608 -0.686037 1.369750
0.296206 -0.349598 1.252797
0.379010 -0.335491 1.496232
-0.236782 -0.268103 1.971324
0.382528 -0.364162 1.453189
0.381693 -0.175366 1.354353
-0.201158 -0.454112 1.429272
0.205932 -0.278249 2.207292
-0.096946 -0.614669 1.734276
0.391597 -0.905100 1.445226
0.107091 -0.264967 2.011191
-0.015276 -0.660808 1.389976
0.316100 -0.159653 1.336925
-0.055684 -0.875505 1.757304
0.162363 -0.875713 1.755054
0.437286 -0.095239 1.010162
-0.044183 -0.569559 1.691617
0.396303 -0.573588 1.425046
0.330024 -0.345860 2.229493
0.057237 -0.206259 1.101070
0.785738 -0.143654 2.117133
-0.290890 -0.946820 1.342621
0.365376 -0.322334 1.537315
0.431430 -0.291492 1.932838
0.042745 -0.603483 1.718572
-0.248013 -0.600616 1.859638
0.040391 -0.513287 1.860414
0.385106 -0.505338 1.886051
0.423786 -0.435894 1.000369
-0.068679 -0.606354 1.781381
0.234081 -0.283599 1.124661
0.398053 -0.459189 1.355606
0.356633 -0.547843 0.908489
0.428940 -0.206580 1.033372
0.414304 -0.558552 1.269878
0.382439 -0.349229 1.639908
0.086568 -0.235105 1.211469
0.260424 -0.536743 1.871601
-0.255241 0.049534 1.185036
0.370463 -0.657309 1.418919
0.151806 -0.824400 1.400379
0.218877 -0.419979 1.097531
0.114359 -0.266553 1.230010
0.206811 -0.267940 1.174795
0.258255 -0.280832 1.161694
0.192150 -0.282516 1.185254
0.194369 -0.332017 1.207758
0.421816 -0.145122 1.159742
0.413814 -0.475311 1.863199
-0.194319 -0.625361 1.850011
-0.253057 -0.375136 1.859699
0.040366 -0.290830 1.018191
0.258760 -0.286603 1.250084
0.326387 -0.422322 2.149493
0.389848 -0.160047 1.855930
0.068290 -0.493228 0.888670
0.325783 -0.646739 1.402087
0.383969 -0.335038 1.477989
0.030003 -0.230923 1.951357
0.039753 -0.665741 1.367941
0.365925 0.046084 2.093308
0.175748 -0.558870 1.828468
0.029636 -0.521995 1.844025
0.039170 -0.563070 1.854110
0.374307 -0.317200 1.587623
0.129497 -0.476430 1.852121
0.375498 -0.771542 1.331646
0.218467 -0.660753 1.398361
-0.090192 -0.490705 1.812494
-0.216171 -0.919209 1.757243
-0.026686 -0.469071 1.848354
-0.034138 -0.860543 1.698797
0.403817 -0.924271 1.739228
0.348641 -0.094109 1.307546
0.296517 -0.428859 1.056282
0.139631 -0.308983 1.036097
-0.005951 -0.563647 1.854392
-0.022945 -0.566990 1.840837
0.114268 -0.256162 1.083981
0.403198 -0.932358 1.404469
0.111595 -0.505255 0.934723
0.002117 -0.073741 1.020715
-0.041782 -0.920305 1.393353
-0.035972 -0.560776 1.729711
-0.071229 -0.461807 1.892844
0.157209 -0.343598 1.230752
-0.218791 -0.896843 1.506985
-0.164442 -0.850648 1.534427
0.078649 -0.501046 0.896336
-0.273674 -0.151684 1.136920
-0.249530 -0.296570 1.145363
-0.218581 -0.005284 1.057951
-0.204902 -0.318667 1.339802
-0.235201 -0.515588 0.876465
0.206091 -0.193730 1.075728
0.068156 -0.491278 0.895338
0.400659 -0.323106 1.332513
0.317103 -0.900088 1.401298
0.412319 -0.297099 1.537313
0.389633 -0.496926 1.948578
0.387221 -0.520720 1.922140
0.386384 -0.380244 1.390275
0.300268 -0.337961 2.147763
0.216532 -0.337847 1.081177
0.366616 -0.388839 1.462466
0.232664 -0.429019 1.111174
0.369451 -0.163057 1.402860
0.418690 -0.440604 1.069692
0.272314 -0.952858 1.428384
0.250774 -0.278384 1.181930
-0.724906 -0.360755 1.093991
0.154001 -0.269105 1.045028
0.389995 -0.418792 0.902798
0.414924 -0.091789 2.237155
0.338636 -0.184971 1.306930
-0.173803 -0.906996 1.605915
-0.251422 -0.095210 0.991043
-0.058193 -0.191502 1.061306
0.346770 -0.918735 1.635316
-0.234730 -0.106499 0.981367
0.425392 -0.437078 1.075233
0.424240 -0.446980 1.143669
0.373934 -0.478869 0.885854
-0.137389 -0.249971 1.286969
0.052418 -0.208840 1.083455
0.352318 -0.648956 1.376830
-0.255666 -0.093757 0.992371
0.077234 -0.214671 1.070871
0.208452 -0.226578 1.104167
0.167287 -0.853756 1.396196
0.128753 -0.644179 1.301817
0.401280 -0.430319 1.429801
0.333169 -0.017477 1.984743
-0.059514 -0.216188 1.882405
0.363440 -0.413935 1.119399
0.231341 -0.345574 2.161686
0.431097 -0.438243 1.099572
0.205338 -0.341147 2.207397
-0.020589 -0.580118 1.695748
-0.082045 -0.923362 1.448598
-0.045170 -0.918575 1.699299
-0.151621 -0.603112 1.799432
0.412733 -0.312738 1.581078
0.328785 -0.291902 1.511148
0.473784 -0.182318 1.880018
-0.224441 -0.409445 1.395350
0.429879 -0.139166 1.317080
0.209299 -0.366568 2.180673
0.380467 -0.792534 1.787997
0.101099 -0.237180 1.086978
0.104204 -0.361283 0.974795
0.381540 -0.322878 1.627768
-0.181282 -0.655142 1.421301
0.377622 -0.335094 1.383717
0.357156 -0.562674 1.348871
0.204540 -0.347258 1.115072
0.408215 -0.423038 1.076791
0.314647 -0.287034 2.171031
-0.136242 -0.499453 1.819321
0.216533 -0.343295 2.154749
0.415181 -0.136850 2.244775
-0.218220 -0.376270 1.821236
0.499504 -0.017988 1.214030
0.439138 -0.096089 1.011411
0.319944 -0.336762 1.270594
0.330294 -0.273602 1.272065
0.404196 -0.440341 1.869943
0.345118 -0.160884 1.869970
0.417406 0.015151 2.140864
0.547989 -0.041547 2.066334
0.243502 -0.645465 1.811054
0.745420 -0.142354 1.348434
0.426256 -0.937039 1.441081
0.197384 -0.304089 1.103925
0.329856 -0.437416 1.100238
-0.000813 -0.241232 1.783276
0.391364 -0.419087 0.917606
0.176979 -0.382639 2.184323
0.418980 -0.088240 2.239008
0.405310 -0.199350 1.509395
0.203426 -0.291408 1.055666
0.183910 -0.258654 1.155003
0.120774 -0.613193 1.378192
-0.033229 -0.188830 1.066519
0.202734 -0.291914 1.054341
0.135284 -0.243566 1.012806
0.400044 -0.935835 1.431768
0.403112 -0.285163 1.603237
0.440913 -0.242076 1.044169
-0.150835 -0.610965 1.766361
0.200184 -0.837421 1.444146
-0.000065 -0.500927 2.187180
0.283935 -0.366803 1.240912
0.406188 -0.283919 1.593343
0.043125 -0.241564 2.028455
-0.093795 -0.502170 2.098748
0.199126 -0.471382 2.146865
0.428739 -0.263341 1.586315
0.255276 -0.277162 1.161145
0.356033 -0.458799 1.436454
0.387903 -0.784953 1.652331
-0.024881 -0.368974 1.704484
0.292301 -0.257211 1.071032
0.056057 -0.632633 1.781555
0.429644 -0.170062 1.465864
0.345399 -0.267029 1.147081
0.345182 -0.870195 1.792573
-0.166084 -0.393768 1.300524
0.230595 -0.345024 2.222527
-0.017299 -0.330416 1.935506
-0.194836 -0.308431 1.916517
0.135118 -0.210251 1.947314
0.343704 -0.173674 1.331678
-0.192948 -0.200060 2.042126
-0.205235 -0.558711 1.894900
0.367543 -0.133357 2.250978
0.353558 -0.173877 1.342559
-0.037273 -0.230028 2.015015
-0.026739 -0.325384 2.008852
0.226353 -0.911119 1.409324
0.414991 -0.143923 1.153022
0.888170 -0.203322 1.479459
1.507699 -0.522543 2.040325
-1.192316 -0.321173 0.874338
0.396171 -0.319797 1.595905
0.374755 -0.912684 1.421005
0.504231 -0.347559 1.630839
0.102916 -0.208449 1.932421
0.407797 -0.136361 1.932052
0.407798 -0.787438 1.794401
0.224431 -0.358623 1.225360
0.349633 -0.830510 1.761366
0.374383 -0.342052 1.663282
0.216885 -0.286148 1.205884
0.013037 -0.586127 1.398397
-0.193277 -0.310851 1.150813
0.020374 -0.222592 1.153820
0.036416 -0.330001 1.124062
-0.269523 -0.248125 1.079417
0.112742 -0.358349 1.076265
0.167555 -0.217921 1.125498
0.048613 -0.237614 1.139940
0.081801 -0.358677 1.051969
0.100419 -0.506654 0.896239
0.419611 0.006388 2.142862
0.311673 -0.162033 1.117482
0.088409 -0.306600 1.009573
0.075612 -0.293062 1.026403
0.035108 -0.328705 1.070538
0.139826 -0.314534 1.045932
0.099551 -0.220940 1.079733
0.018568 -0.220720 1.123171
-0.223190 -0.283445 1.284219
-0.194770 -0.401390 1.375931
-0.129534 -0.092260 1.643186
-0.251786 -0.514013 0.938736
0.114391 -0.230358 1.061822
0.417764 -0.407409 0.886490
0.407291 -0.455393 0.890869
-0.266754 -0.621325 1.027779
-0.145370 -0.171082 1.096499
-0.060384 -0.341418 1.127591
0.416831 -0.562835 0.903530
0.086023 -0.358460 1.057610
0.396406 -0.945740 1.420709
0.114749 -0.494125 0.891396
0.299059 -0.110468 1.216859
0.372841 -0.356679 1.294791
0.363870 -0.393254 1.343392
0.355540 -0.395455 1.353044
0.050997 -0.294768 1.022014
0.099582 -0.307442 1.061924
0.076405 -0.263410 1.042731
0.108784 -0.328474 1.052060
0.059964 -0.226004 1.039448
-0.190061 -0.395114 1.344046
-0.237137 -0.407490 1.409789
-0.222021 -0.459972 0.881192
-0.201674 -0.930949 1.388723
0.106573 -0.353721 1.053030
0.110197 -0.275492 1.033309
0.407841 -0.495725 0.901597
0.293000 -0.792429 1.222193
0.017226 -0.223631 1.121433
0.033280 -0.238138 1.137556
0.162351 -0.219884 1.138086
-0.219985 -0.493777 0.886112
-0.144097 -0.170040 1.079944
-0.224035 -0.387257 1.300762
0.370227 -0.477189 0.893683
0.073377 -0.266415 1.022416
0.361459 -0.180192 1.308325
0.052981 -0.290231 1.050287
0.095741 -0.265113 1.025526
0.067106 -0.325711 1.030503
-0.238137 -0.404020 1.399068
-0.195813 -0.413350 1.406999
-0.167508 -0.596274 0.939705
0.053560 -0.319995 1.050664
0.397148 -0.387790 1.383282
0.296559 -0.107360 1.087022
0.083895 -0.506766 0.897975
0.030343 -0.238114 1.126448
0.163450 -0.220223 1.134543
0.110252 -0.224747 1.062076
-0.178157 -0.472186 0.876118
0.377411 -0.028429 1.770661
-0.230104 -0.407789 0.874756
0.100896 -0.272889 1.053808
0.113808 -0.280813 1.057538
0.115885 -0.287848 1.025084
-0.203937 -0.354391 1.190004
0.362047 -0.046094 1.677243
0.350973 -0.307106 1.159698
0.406703 -0.395012 1.396752
0.035221 -0.308795 1.041023
0.360226 -0.469472 0.876637
-0.230419 -0.412378 0.877336
-0.201989 -0.413280 1.410803
-0.138691 -0.138278 1.112790
0.423188 -0.296905 1.141858
0.061208 -0.317984 1.028280
0.297995 -0.167723 1.055053
0.385939 -0.377246 1.322313
0.349947 -0.311145 1.173545
0.329556 -0.326915 1.111016
0.415540 -0.412514 0.889051
0.096567 -0.177632 1.143111
0.058994 -0.192846 1.096522
0.133882 -0.280749 1.085960
0.411252 -0.323030 1.324316
-0.250423 -0.296861 1.135036
0.402976 -0.476563 0.893042
-0.168190 0.007482 1.092213
-0.123572 -0.134408 1.584571
0.102856 -0.270000 1.009243
0.391609 -0.517864 0.895413
0.031368 -0.295909 1.089341
0.137605 -0.314788 1.050217
-0.229636 -0.546755 0.876974
-0.085033 -0.120393 1.174774
0.088462 -0.332024 1.053433
-0.230639 -0.561692 0.894974
-0.215759 -0.487047 0.886443
0.460182 -0.057308 1.057973
-0.203042 -0.559584 0.896915
0.108457 -0.573241 0.909502
0.093930 -0.262208 1.039214
0.117513 -0.308364 1.023200
-0.008295 -0.917098 1.377938
-0.246673 -0.489974 0.909187
0.024682 -0.903718 1.403398
0.350254 -0.906719 1.404392
0.367941 -0.859146 1.373840
0.151990 -0.928370 1.429572
-0.003518 -0.413309 0.883886
0.180239 -0.907924 1.401257
0.031608 -0.291985 1.058425
0.140048 -0.315578 1.044910
-0.157340 0.007123 1.125331
0.442291 0.004442 1.112453
-0.233247 -0.407584 0.876776
0.200068 -0.413113 0.892968
-0.256679 -0.088945 0.993203
0.302376 -0.108081 1.282498
0.085178 -0.264189 1.032272
0.025882 -0.923187 1.399725
0.366722 -0.474962 0.886444
0.135270 -0.924779 1.390965
-0.041278 -0.553445 0.896913
-0.128045 -0.929005 1.443411
0.330086 -0.141674 1.162567
-0.010679 -0.898281 1.361030
0.352506 -0.056886 2.248954
0.092924 -0.550011 0.900465
0.339901 -0.903094 1.398415
-0.174456 -0.554038 0.890340
-0.240809 -0.293165 1.099652
-0.178550 -0.471578 0.880224
0.291569 -0.125249 1.042564
0.326980 -0.908033 1.405527
0.036314 -0.904038 1.408313
-0.233955 -0.302635 1.114047
0.193226 -0.808913 1.374059
-0.141329 -0.144084 0.992724
0.437716 0.012757 1.152966
0.280172 -0.582807 0.908236
0.416603 -0.297076 1.137397
-0.197285 -0.898665 1.409249
0.227046 -0.551565 0.904376
-0.185368 -0.170836 0.991294
0.080847 -0.257236 1.051699
-0.008641 -0.911822 1.396787
0.362140 -0.545286 0.908071
0.178678 -0.913081 1.399433
0.113374 -0.167787 1.060675
-0.250158 -0.159201 1.020447
0.123101 -0.246730 1.024357
0.093880 -0.551562 0.900838
0.024739 -0.250610 1.107002
0.117204 -0.514436 0.923804
-0.273786 -0.040622 1.033412
0.185552 -0.855218 1.369089
0.162123 -0.919469 1.378452
0.020412 -0.125314 1.139679
0.086342 -0.265088 1.020161
0.380822 -0.311621 1.381914
0.109535 -0.164172 1.085719
0.177648 -0.151435 1.078718
-0.156595 -0.131703 1.169407
0.117178 -0.312760 1.162569
0.330234 -0.885540 1.462921
0.235633 -0.197375 1.153420
0.069526 -0.234871 1.110444
0.353432 -0.374498 2.071383
0.127678 -0.327945 1.066015
0.222748 -0.189535 1.163142
-0.049314 -0.236167 1.032254
-0.142133 -0.054501 1.221869
0.003512 -0.150674 1.075465
0.025781 -0.821306 1.358159
0.424460 -0.331034 1.337486
-0.177719 -0.554698 0.897411
-0.011677 -0.860414 1.364695
0.159635 -0.255275 1.171047
-0.231525 -0.487589 1.431890
0.269644 -0.391034 1.050377
0.360611 -0.380755 1.456431
0.014383 -0.150783 1.074433
0.036540 -0.144148 1.104369
0.314298 -0.181481 1.051061
0.320250 -0.174693 1.070692
0.060594 -0.151466 1.066219
0.336176 -0.294584 1.219895
-0.130719 -0.205816 1.110493
0.007942 -0.148985 1.077091
-0.006971 -0.830274 1.382345
-0.016092 -0.180351 1.056117
0.080228 -0.329857 1.232803
0.360226 -0.553224 0.907984
0.071926 -0.302012 1.037641
0.111798 -0.526976 0.898728
0.058696 -0.153445 1.068243
0.327267 -0.136530 1.082858
0.121822 -0.195706 1.104120
0.113884 -0.555534 0.866949
0.419198 -0.284979 1.094648
0.050319 -0.188028 1.092877
0.118846 -0.172753 1.072522
0.027436 -0.148916 1.065902
0.227106 -0.552808 0.905367
0.181922 -0.910643 1.405813
0.024071 -0.853903 1.365770
0.025954 -0.647400 1.385533
0.402000 -0.251556 2.202332
0.071146 -0.358416 1.088268
0.119662 -0.139374 1.114427
0.170584 -0.661622 1.411689
0.301870 -0.650129 1.459605
0.257011 -0.169423 1.089527
0.123363 -0.905413 1.400672
-0.213179 -0.301537 1.093672
0.025512 -0.820776 1.473479
0.365023 -0.544616 0.902871
-0.091806 -0.145528 1.108028
-0.247411 -0.192320 0.993121
0.433958 -0.124190 1.025055
0.139503 -0.908373 1.392904
0.118419 -0.285638 1.026196
-0.201128 -0.312987 1.139180
-0.117131 -0.214604 1.154689
0.102345 -0.624141 1.399735
0.224804 -0.549840 0.906071
-0.014021 -0.654555 1.378274
0.385529 -0.559059 0.899901
0.071541 -0.499856 0.892466
0.179748 -0.154195 1.074599
0.028701 -0.855759 1.377769
0.121880 -0.153484 1.064890
0.416022 -0.300316 1.140281
0.012536 -0.858528 1.392500
-0.080309 -0.201704 1.135567
0.440966 -0.227577 1.500081
-0.251105 -0.296505 1.569206
-0.264412 -0.209718 1.816829
-0.215282 -0.321840 1.528263
-0.146339 -0.399675 1.120870
-0.655787 -0.491215 1.785471
-0.260043 -0.292217 1.902826
0.354834 -0.415631 1.437821
0.379919 -0.472879 1.453171
0.199490 -0.163911 1.101771
0.127321 -0.322426 1.143331
-0.122205 -0.117356 1.241895
0.223886 -1.034137 1.905843
-0.252790 -0.191250 0.994396
-0.237988 -0.230809 1.009799
0.109069 -0.283852 0.973466
0.171355 -0.146749 1.084359
0.291787 -0.113388 1.077949
0.120466 -0.152081 1.075225
0.161353 -0.234168 1.073329
0.313700 -0.131865 1.149147
0.052589 -0.285681 1.023634
0.090440 -0.814295 1.417336
0.384955 -0.571730 1.391715
0.415953 -0.285658 1.089073
-0.144323 -0.043466 1.239476
0.028329 -0.905247 1.392323
0.203190 -0.893861 1.391384
0.429622 -0.188371 1.034005
0.060321 -0.613618 1.403048
0.106952 -0.612806 1.403809
0.078982 -0.360029 1.060638
0.027736 -0.818558 1.356263
0.332234 -0.573058 1.288503
-0.139949 -0.201484 1.152866
0.324617 -0.200738 1.149099
0.000309 -0.136165 1.079355
0.031693 -0.260336 1.104158
0.231160 -0.518881 0.901847
-0.019613 -0.166142 1.100755
0.033322 -0.835553 1.376114
-0.013295 -0.661343 1.344239
0.226770 -0.543184 0.904211
0.421348 -0.563600 0.913122
0.145240 -0.849503 1.367477
0.158957 -0.239313 1.161236
0.052600 -0.352029 1.049991
0.124573 -0.325975 1.040314
0.387462 -0.580622 1.394241
0.104079 -0.336629 1.200159
0.039672 -0.413823 0.836014
0.370215 -0.844858 1.367582
0.018737 -0.284942 1.060043
0.419456 -0.437558 0.971708
-0.261506 0.056836 1.280977
0.377932 -0.406758 1.542060
0.313587 -0.524317 1.869016
0.408520 -0.416835 1.435220
0.425824 -0.448670 0.911042
0.084133 -0.238315 1.144087
0.027816 -0.920537 1.395649
0.054536 -0.673382 1.444633
-0.241280 -0.914859 1.712053
0.091374 -0.268852 1.029000
0.021192 -0.140433 1.123944
0.339833 -0.396365 1.643457
0.289247 -0.933018 1.689083
0.357632 -0.796042 1.351049
0.333908 -0.138829 1.005811
0.439015 0.007553 1.112095
0.425510 -0.268859 1.061620
0.197465 -0.661324 1.370716
-0.135670 -0.149013 1.089947
0.420773 -0.515323 0.888970
0.056132 -0.354491 1.049628
-0.126858 -0.209716 1.087325
0.137347 -0.308549 1.129385
0.055796 -0.154736 1.084419
0.165073 -0.583898 1.391609
0.244259 -0.119058 1.117648
0.373106 -0.165428 1.340820
0.144453 -0.818433 1.355947
-0.257917 -0.224153 1.017747
0.130151 -0.810746 1.360320
-0.148594 -0.862347 1.522187
0.412176 -0.211737 1.516199
-0.184378 -0.661810 1.394155
0.306091 -0.811346 1.503458
0.224167 -0.535853 1.867718
0.414521 -0.324615 1.390670
-0.222892 -0.945787 1.404957
0.059125 -0.613288 1.397427
0.025629 -0.482612 0.892471
0.066854 -0.622571 1.406111
0.027226 -0.907654 1.391040
0.185608 -0.653054 1.386660
-0.043641 -0.518979 0.894604
0.431697 -0.141919 0.994930
0.124479 -0.319562 1.197012
0.087991 -0.307349 1.060561
0.142576 -0.856880 1.366246
0.138912 -0.244422 1.131369
0.135687 -0.191428 1.100314
-0.138731 -0.130742 1.154720
0.412178 -0.559119 1.264948
0.261879 -0.318534 1.226285
0.216499 -0.280503 1.185334
0.219048 -0.301243 1.214411
0.249067 -0.276539 1.195594
-0.141880 -0.158500 1.081012
0.403014 -0.386340 1.393482
0.362888 -0.647963 1.406905
-0.003615 -0.581290 1.705132
0.395443 -0.281772 1.600855
0.408437 -0.330433 1.576782
-0.143218 -0.138516 1.084828
-0.128338 -0.141434 1.066017
-0.127919 -0.176750 1.059012
0.417981 -0.522230 0.889209
0.137179 -0.812897 1.357041
-0.186243 -0.308096 1.190771
-0.115621 -0.199557 1.216057
0.082381 -0.309007 1.024999
-0.143531 -0.201365 1.152165
0.201598 -0.163907 1.103798
0.350705 -0.333802 1.649583
0.403559 -0.345725 1.486158
0.060886 -0.617370 1.410555
-0.141643 -0.643205 1.380873
0.092384 -0.314385 1.105531
-0.136541 -0.166377 1.072963
0.153876 -0.150043 1.066650
-0.061373 -0.848960 1.413982
0.051753 -0.352101 1.046220
-0.230805 -0.598989 1.348837
0.413354 -0.301841 1.140968
0.443882 -0.106551 1.109005
0.397772 -0.454133 1.198492
0.192594 -0.275079 1.152255
-0.232333 -0.946286 1.741581
-0.335680 -0.562013 1.281094
0.365445 -0.842893 1.369755
0.154221 -0.350533 1.042281
0.072534 -0.255743 1.225564
0.408524 -0.454409 0.894758
-0.073665 -0.085067 1.207139
0.322388 -0.465361 2.111647
0.137800 -0.228461 1.093871
0.309833 -0.501167 2.125283
-0.243567 -0.529002 0.887433
-0.243176 -0.512355 0.873447
0.317485 -0.841803 1.489025
0.317647 -0.342609 2.223113
0.132151 -0.134997 1.100245
0.146801 -0.819691 1.428836
0.310970 -0.191308 1.278263
-0.216173 -0.588784 1.369903
0.177562 -0.822179 1.379725
0.059641 -0.350646 1.048821
0.028727 -0.910154 1.402462
-0.088916 -0.143101 1.201806
0.400115 -0.429600 0.891572
0.103826 -0.620139 1.407870
0.027619 -0.861813 1.378557
0.090903 -0.318469 1.155607
0.165134 -0.311228 1.164818
0.135273 -0.324766 1.067468
0.227097 -0.192754 1.174218
0.141629 -0.922522 1.391540
0.087669 -0.290789 1.024818
-0.006111 -0.824302 1.364702
-0.166100 -0.589597 1.368325
-0.183304 -0.584211 1.390502
0.203392 -0.164800 1.108021
0.043331 -0.337779 1.115409
0.106256 -0.317515 1.167663
0.168966 -0.581563 1.394644
0.123803 -0.319492 1.204761
0.422703 -0.421691 1.117505
0.394371 -0.188326 2.239617
0.345052 -0.339730 1.659902
0.401804 -0.305346 1.548936
0.135020 -0.185161 1.116006
0.418012 -0.564252 1.250020
0.393585 -0.405834 1.380096
0.023857 -0.913416 1.401963
0.116415 -0.286754 1.028630
0.427466 -0.194182 1.005888
0.188308 -0.875470 1.395700
-0.084522 -0.670808 1.414519
0.413605 -0.455569 0.894615
0.400411 -0.486778 0.909229
0.233420 -0.192459 1.159032
-0.239441 -0.184865 0.998007
0.135366 -0.857901 1.364288
-0.229975 -0.563262 0.895637
0.082378 -0.504219 0.896628
-0.176690 -0.546720 0.905027
0.130182 -0.335828 1.176402
0.415604 -0.556476 1.126036
0.354464 -0.389419 1.662867
0.432024 -0.194371 1.317133
-0.135909 -0.172099 1.075936
0.395200 -0.328341 1.966578
-0.226708 -0.806456 1.342058
0.173842 -0.827582 1.384351
0.113062 -0.342695 1.157553
0.096607 -0.339831 1.172138
-0.217994 -0.585699 1.364006
-0.246856 -0.193848 0.993203
0.180750 -0.928444 1.407882
0.059844 -0.191306 1.079411
-0.261449 -0.001198 1.087176
-0.207500 -0.915300 1.414770
0.144652 -0.289742 1.158636
0.318015 -0.134312 1.014009
0.127997 -0.299044 1.165406
0.324521 -0.137376 1.025054
-0.132370 -0.130162 1.097310
0.366799 -0.554088 0.906145
-0.153001 -0.646152 1.391244
0.002128 -0.581271 1.385821
-0.123246 -0.886140 1.701863
0.238225 -0.524050 1.763592
0.400560 -0.481680 1.873637
0.432956 -0.455236 1.009699
0.142322 -0.259782 1.214854
0.357643 -0.883478 1.728530
-0.050963 -0.562511 1.692702
0.427162 -0.538012 0.915906
0.224499 -0.353220 2.146663
0.386209 -0.257011 2.209262
0.401562 -0.938387 1.420321
0.368213 -0.814228 1.355317
0.423375 -0.422163 1.114297
-0.228487 -0.441459 0.879597
0.340988 -0.378474 0.972997
-0.030002 -0.169629 1.062456
0.162981 -0.477976 1.813835
0.029194 -0.648566 1.389111
0.257976 -0.582555 0.913145
0.211646 -0.172131 1.101332
0.342455 -0.921675 1.710622
-0.210919 -0.335870 1.221869
0.398731 -0.280982 1.542465
0.305729 -0.664712 1.402030
0.395027 -0.297566 1.599517
0.373303 -0.218136 1.129106
0.123238 -0.327491 1.040561
-0.146089 -0.141154 1.066197
-0.218757 -0.924721 1.424205
-0.233290 -0.317416 1.328848
0.411696 -0.455611 0.897195
0.389946 -0.315030 1.583660
0.356944 -0.168148 1.903571
0.204659 -0.327584 1.215826
0.126063 -0.231143 1.108176
0.423186 -0.564173 0.910684
0.395366 -0.380331 1.392956
0.402491 -0.825726 1.396115
0.388049 -0.314339 1.427266
0.356482 -0.383453 1.439674
0.395140 -0.347977 1.467009
0.345863 -0.407769 1.653427
0.123443 -0.259375 1.046223
0.418178 -0.415818 1.361411
0.424004 -0.561604 1.271267
0.423030 -0.455657 0.919390
0.144158 -0.251650 1.003161
0.009775 -0.449716 0.875330
0.415406 -0.436532 0.977960
0.087689 -0.301571 1.214141
0.227422 -0.372724 1.059483
-0.209562 -0.586364 1.379854
0.019679 -0.895567 1.415818
-0.242569 -0.196131 0.989504
0.349771 -0.090813 1.009881
0.375896 -0.642462 1.381949
-0.043119 -0.551429 0.895261
0.128659 -0.144866 1.088041
0.135236 -0.287857 1.093614
0.447196 -0.436282 1.373974
-0.034399 -0.576065 1.735325
0.217775 -0.281229 2.195386
-0.281387 -0.464895 1.854128
-0.138718 -0.448952 1.817225
0.355770 -0.452775 1.450651
-0.241533 -0.582717 1.916733
0.401525 -0.455142 1.392933
0.228149 -0.324679 1.176459
-0.257134 -0.436306 1.852088
-0.140828 -0.579607 1.762784
0.407228 -0.556580 1.371335
0.390535 -0.325383 1.543656
-0.152364 -0.197110 1.116151
0.280213 -0.288474 2.202123
0.419187 -0.414035 1.365885
0.402667 -0.576381 1.384373
0.161921 -0.330378 2.169022
-0.282715 -0.411608 1.379996
0.368114 -0.397814 1.453545
0.394114 -0.420704 1.348554
0.395116 -0.895604 1.733952
0.337029 -0.328804 1.630078
0.381601 -0.929494 1.736708
0.194612 -0.959241 1.454453
0.401077 -0.552352 1.361401
0.133653 -0.324381 1.088173
-0.157532 -0.592685 1.837317
-0.015319 -0.333189 1.959538
0.181626 -0.292209 1.207437
0.240270 -0.284734 2.156960
-0.161603 -0.137234 1.170841
0.136732 -0.276218 1.086400
0.363526 -0.551893 0.907189
0.095320 -0.292824 1.180375
0.410023 -0.420479 1.198061
0.032590 -0.251489 1.053071
0.368927 -0.265970 1.573065
0.158695 -0.520408 1.892268
0.143726 -0.898818 1.442782
0.375233 -0.328865 1.386594
0.445644 -0.230393 1.052460
0.433267 -0.443764 1.126570
0.287446 -0.144476 1.109237
-0.221048 -0.601135 1.379390
0.139824 -0.307970 1.029796
-0.011664 -0.869728 1.362548
0.386967 -0.920413 1.439480
0.385184 -0.183576 1.662800
0.414937 -0.410444 1.370283
0.233076 -0.535250 1.840040
0.399339 -0.356633 1.947140
0.136997 -0.317181 1.176138
0.172152 -0.148662 1.078241
-0.057675 -0.340001 1.058361
0.125205 -0.259573 1.065706
-0.017114 -0.904502 1.379669
0.080165 -0.307582 1.029806
-0.133642 -0.152739 1.115236
0.068896 -0.294609 1.274131
0.035734 -0.317963 1.088089
0.091716 -0.245462 1.249284
0.003029 -0.584916 1.389407
0.175638 -0.878180 1.413190
0.130493 -0.366457 1.008635
0.126441 -0.186469 1.102904
0.154556 -0.362767 1.043596
0.082109 -0.270895 1.028185
0.100437 -0.356486 1.070215
0.124636 -0.326865 1.078580
0.315541 -0.529540 1.872827
0.308307 -0.581455 1.596642
0.434735 -0.470031 0.891854
0.430398 -0.560879 0.909630
0.053115 -0.200788 1.106096
-0.152571 -0.645419 1.388956
0.140539 -0.262967 1.142146
0.003303 -0.905160 1.369881
0.044206 -0.321300 1.257058
0.079224 -0.330535 1.034415
0.330109 -0.643722 1.409927
0.084660 -0.259380 1.057038
0.398039 -0.808984 1.387523
0.116827 -0.397001 0.917957
0.316574 -0.199868 1.035468
0.413984 -0.563672 1.288826
0.119278 -0.915299 1.404627
0.412614 -0.419587 1.204414
0.194185 -0.248618 1.135642
-0.194657 -0.804148 1.347308
0.321640 -0.291490 1.096970
0.394508 -0.262923 1.634326
0.390811 -0.280227 1.623565
0.191326 -0.321207 1.145651
0.233338 -0.409269 0.876092
0.230402 -0.412815 0.868581
0.383724 -0.922158 1.441725
0.131721 -0.208884 1.104638
0.408384 -0.402892 0.966958
-0.247824 -0.142990 0.983607
-0.103047 -0.141220 1.069757
0.053117 -0.498787 1.855294
0.427315 -0.560121 0.973320
0.120506 -0.344578 1.122653
0.391608 -0.180436 1.820983
0.330075 -0.083246 1.939408
-0.002573 -0.572933 1.875336
0.098206 -0.501583 1.826554
0.123125 -0.933382 1.391698
0.250355 -0.289783 1.098146
0.209562 -0.281174 1.151261
0.405165 -0.136453 1.156918
0.402971 -0.562071 1.365900
0.243342 -0.366747 1.115468
0.391603 -0.135330 2.091199
0.061138 -0.209854 1.059006
0.291817 -0.192670 1.924844
0.286760 -0.296537 2.104744
0.436282 -0.378023 1.927912
0.425261 -0.422134 0.932187
0.428751 -0.455594 0.977154
-0.196683 -0.808583 1.345749
0.308677 -0.317667 1.540704
0.203606 -0.263438 1.128446
0.430037 -0.443491 1.015696
-0.007793 -0.663643 1.761204
-0.141151 -0.148714 1.065437
0.146958 -0.847119 1.356439
0.078432 -0.525514 0.900415
0.398205 -0.275916 1.921013
0.238521 -0.450876 2.115022
-0.151642 -0.173376 2.033468
0.043431 -0.660519 1.377751
0.102347 -0.625717 1.475657
0.287749 -0.180912 2.112536
-0.172796 -0.199357 2.135216
-0.136348 -0.188633 2.070832
0.291920 -0.182644 2.094774
0.317070 -0.340995 2.226577
-0.250406 -0.141739 0.984555
0.219692 -0.661230 1.410409
-0.013287 -0.924976 1.384036
0.366694 -0.908682 1.394536
0.394255 -0.261765 2.199733
0.042803 -0.383158 0.971955
0.360767 -0.553878 0.907829
-0.193407 -0.700082 1.840899
0.162388 -0.260994 1.180112
-0.164573 -0.164205 1.131255
0.134306 -0.281084 1.084837
0.090112 -0.350864 1.105024
0.148207 -0.274307 1.091727
0.141563 -0.361977 1.041100
0.138025 -0.523482 1.846383
0.429328 -0.439170 0.960489
0.414631 -0.162894 1.452683
0.138485 -0.271747 1.230848
0.137230 -0.243258 1.143505
0.020480 -0.183956 1.086595
-0.221286 -0.334996 1.468189
-0.207341 -0.358536 1.432328
-0.109104 -0.182332 2.032468
0.306543 -0.394691 2.155431
-0.246906 -0.297751 1.542840
-0.104585 -0.558262 1.873335
0.370552 -0.948314 1.595601
-0.120298 -0.463394 0.789338
-0.193782 -0.434519 1.177614
0.116709 -0.356256 1.041609
-0.197910 -0.950608 1.518025
0.436219 -0.425448 1.197741
0.304817 -0.211824 1.086006
0.034436 -0.133557 1.100355
0.163416 -0.303273 0.953442
0.123615 -0.345584 1.026033
0.112600 -0.333078 1.080741
0.152411 -0.342139 1.069738
-0.235886 -0.808643 1.350302
-0.210428 -0.917287 1.419221
0.408261 -0.559972 1.368728
0.170515 -0.258335 2.067021
-0.169021 -0.953070 1.420712
0.213617 -0.277347 2.121645
0.166602 -0.584324 1.398401
0.398423 -0.420135 1.440489
0.335964 -0.865516 1.478119
0.405236 -0.418528 1.071456
0.433137 -0.455361 1.005766
0.136615 -0.341948 2.129381
0.153391 -0.269509 2.120940
-0.205906 -0.914732 1.412724
-0.064546 -0.124049 2.118791
0.359420 -0.322217 1.364668
0.345838 -0.396548 1.528951
0.332468 -0.493213 1.852857
0.397052 -0.816849 1.393419
0.313884 -0.534052 1.882797
-0.250596 -0.269660 1.050673
0.087832 -0.289364 1.025613
0.370818 -0.527819 1.928302
0.382707 -0.186812 1.715241
0.399512 -0.902805 1.427161
0.394167 -0.535388 1.444449
0.370779 -0.318973 1.655544
-0.182569 -0.471983 0.898479
0.131058 -0.318944 1.040031
0.211656 -0.347577 1.186380
0.181941 -0.273436 1.231321
-0.254729 -0.142761 0.985596
0.112343 -0.499593 0.896378
0.429776 -0.450378 0.908172
0.411617 -0.174162 1.435768
0.156207 -0.286359 1.098435
0.412284 -0.476750 0.897865
0.394929 -0.518448 0.906595
-0.055258 -0.360095 1.074733
0.398874 -0.421210 1.190309
0.102034 -0.318545 1.254630
0.120320 -0.235525 1.085633
0.274212 -0.135606 2.142945
0.268284 -0.114305 2.143836
-0.179317 -0.481635 2.080587
-0.158646 -0.252228 2.033643
0.411945 -0.930710 1.439763
-0.130196 -0.452578 2.074674
0.354877 -0.914067 1.426610
0.376541 -0.559475 1.842942
-0.090930 -0.170301 2.046611
0.018533 -0.609831 1.726031
-0.103771 -0.557651 1.819312
0.342463 -0.654667 1.442466
0.280000 -0.311029 1.992379
-0.074756 -0.170921 2.019329
0.366318 -0.926721 1.457870
0.420149 -0.544475 0.910343
0.182696 -0.157691 1.159652
0.192612 -0.264299 1.040951
0.440681 -0.197441 1.013976
0.350028 -0.348362 2.003702
0.117623 -0.337794 1.052856
0.173805 -0.911060 1.409327
0.359127 -0.402320 1.645793
-0.022226 -0.337742 1.022701
0.408736 -0.563968 1.089287
-0.300634 0.011772 2.070523
0.375356 -0.175256 1.625875
-0.216656 -0.396876 2.125876
-0.257667 -0.512708 1.952276
-0.049904 -0.455998 2.172629
-0.228483 -0.311852 2.174235
-0.050555 -0.569731 1.841430
-0.170067 -0.417173 2.165953
0.385790 -0.196023 1.804005
-0.076927 -0.359046 1.076525
0.126316 -0.259636 1.096457
-0.302350 -0.982348 2.082260
0.396826 -0.806119 1.389721
0.205160 -0.265441 1.126383
0.146294 -0.326191 1.077840
0.389102 -0.321014 1.979932
0.354234 -0.090741 1.008990
0.162305 -0.264255 1.163785
-0.135083 -0.159445 1.079874
0.441337 -0.789464 1.341705
0.219747 -0.171368 1.094787
0.091489 -0.505652 0.896434
0.036985 -0.336160 1.084780
0.145439 -0.658572 1.392531
-0.215024 -0.902666 1.688304
-0.333302 -0.941050 1.867918
0.422434 -0.369865 1.911000
0.350346 -0.382424 1.677247
-0.191549 -0.899863 1.726937
0.112332 -0.500267 0.884107
0.044514 -0.652464 1.487645
0.414601 -0.141101 1.159154
0.390106 -0.198192 1.673672
0.152423 -0.234865 1.082417
0.275111 -0.120972 2.212793
0.372367 -0.149871 1.881823
0.161753 -0.204176 1.071319
0.148795 -0.215746 1.078895
0.105155 -0.225359 1.073432
0.130615 -0.323062 1.130318
0.121280 -0.284169 1.023768
-0.009225 -0.493304 1.772312
0.381493 -0.113494 1.328163
0.179128 -0.342348 1.065426
0.148962 -0.306018 2.219742
0.084728 -0.279692 1.032294
0.302353 -0.435241 2.166144
-0.183949 0.009538 1.087111
0.387222 -0.495548 1.884037
-0.266578 -0.400771 1.825251
0.165442 -0.453403 1.539318
0.402806 -0.309591 1.925942
-0.109796 -0.612779 1.718366
0.189287 -0.309066 2.225953
0.349942 -0.549429 1.901468
0.282894 -0.408353 2.167664
0.226211 -0.261937 2.079157
0.187627 -0.659270 1.414227
0.193539 -0.236521 1.997770
0.331162 -0.566268 1.927128
-0.273977 -0.080375 2.219675
-0.268437 -0.163319 1.829121
-0.222162 -0.378815 1.438999
-0.222588 -0.385185 1.432494
0.375441 -0.187122 1.821808
0.222967 -0.536353 1.860744
0.412444 -0.175363 1.433584
0.405769 -0.426395 1.425173
0.364755 -0.526379 1.915481
0.403291 -0.190772 2.240868
-0.226263 -0.612570 1.341243
0.174033 -0.630401 1.325016
0.194894 -0.336718 1.184920
0.375983 -0.383753 1.458849
0.242504 -0.291467 1.236191
0.376247 -0.157369 1.716905
-0.279197 -0.192211 1.660725
-0.237414 -0.346138 1.651572
0.775431 -0.137874 2.053883
-0.069955 -0.382450 2.173464
0.353333 -0.549397 1.898552
0.347838 -0.340661 1.659034
0.383901 -0.900527 1.503399
0.414046 -0.227283 2.168549
0.194901 -0.417287 1.061449
0.249579 -0.382774 1.061928
0.140768 -0.307138 1.035561
0.227871 -0.297369 2.233455
0.224297 -0.350313 2.151737
0.437663 -0.193309 1.012711
0.345711 -0.140276 1.315028
0.348945 -0.396599 1.646703
0.383047 -0.925033 1.742602
0.002019 -0.600798 1.389131
0.307682 -0.828236 1.498187
0.399873 -0.329534 1.937746
0.147871 -0.133734 1.215589
0.435097 -0.440922 0.948268
-0.200730 -0.944803 1.493428
-0.001676 -0.924078 1.379344
-0.154192 -0.119163 1.167120
0.342972 -0.897637 1.754824
-0.136559 -0.168069 1.151682
0.057461 -0.227840 1.160583
0.432521 -0.436667 0.940788
0.066468 -0.212748 1.076786
0.383850 -0.328585 1.527395
-0.131506 -0.172320 1.141244
0.138695 -0.260377 1.069013
0.357158 -0.076394 1.784370
0.427924 -0.409304 0.897461
0.404189 0.001405 1.077090
-0.125034 -0.918137 1.408602
0.365225 -0.653903 1.332304
-0.200272 -0.948743 1.393884
-0.112274 -0.652005 1.369975
-0.253202 -0.206820 1.763183
-0.161587 -0.400242 1.509570
-0.026499 -0.112364 2.092390
0.390032 -0.849329 1.420771
0.411242 -0.128678 2.242782
0.431128 -0.143493 1.315147
-0.031399 -0.476283 1.851903
0.036005 -0.819586 1.369607
0.394750 -0.794722 1.391453
0.402064 -0.304116 1.522455
0.326062 -0.329428 1.672743
0.431072 -0.448961 0.979728
0.432879 -0.439372 1.069547
0.323562 -0.273321 1.228901
0.015009 -0.540369 1.809125
0.264347 -0.363450 2.001201
0.345254 -0.266551 1.275567
-0.112746 -0.195368 1.670636
0.401692 -0.441892 1.867574
0.399230 -0.181382 1.906386
-0.063327 -0.401408 1.345283
-0.192108 -0.397257 1.655163
0.131720 -0.506468 1.812200
-0.023283 -0.498964 1.792450
0.282353 -0.156765 1.902872
-0.190979 -0.430164 1.350222
-0.329010 -1.094689 1.914598
0.380556 -0.328299 1.581779
0.268297 -0.347288 1.243849
0.388703 -0.371419 1.388787
0.057828 -0.233657 1.852283
0.405616 -0.195941 1.507065
0.316396 -0.420589 2.139162
0.405740 -0.435831 1.164433
0.321730 -0.164638 1.891104
-0.044079 -0.228879 1.056803
-0.224991 -0.314871 2.049565
0.197490 -0.619771 1.619462
0.341871 -0.254051 1.835021
-0.070555 -0.385306 2.150418
0.430408 -0.442060 1.067423
-0.087657 -0.666054 1.816934
0.415120 -0.417780 1.204881
0.391300 -0.331262 1.447913
0.426511 -0.440556 1.016735
0.202107 -0.331635 1.179915
0.211399 -0.262452 1.073096
0.030292 -0.810716 1.372238
-0.049743 -0.323530 1.071223
0.404408 -0.343377 1.466860
0.116692 -0.312111 1.113947
0.390832 -0.141685 1.514219
0.433403 -0.561730 0.901874
0.409640 -0.418797 1.201934
0.127266 -0.566733 1.846232
0.112068 -0.484922 1.839520
0.423933 -0.542120 0.916898
0.340031 -0.021361 1.974626
0.376200 -0.371080 1.461920
0.202199 -0.357550 1.195839
0.439145 -0.145736 1.004233
0.362394 -0.316350 1.272817
-0.210323 -0.165560 2.059523
-0.122555 -0.146771 1.073536
0.123870 -0.281162 1.140050
0.184877 -0.156358 1.160080
0.386711 -0.390793 1.406345
0.118923 -0.256494 1.081481
0.328461 -0.940168 1.447357
0.315115 -0.894876 1.509255
0.344250 -0.559331 1.882322
0.330950 -0.122772 1.913850
-0.028593 -0.845380 1.372545
-0.216640 -0.501277 1.904949
-0.284406 -0.206231 1.605901
-0.279943 -0.267219 1.620452
0.370857 -0.508274 1.948011
0.126295 -0.234809 1.034526
0.117457 -0.240867 1.068082
0.401581 -0.285921 2.140942
0.432526 -0.561805 0.905341
0.235083 -0.196026 1.157223
0.129925 -0.519892 1.856722
0.408474 -0.290891 1.519355
0.426028 -0.422443 1.087081
0.328090 0.021585 2.114289
-0.274435 -0.177623 1.849839
0.032191 -0.662143 1.386287
0.196134 -0.911382 1.712240
0.044445 -0.194579 2.095368
0.043583 -0.675536 1.343207
0.182608 -0.625323 1.589950
-0.156723 -0.635017 1.813932
-0.183355 -0.336202 1.416750
0.164961 -0.867404 1.618918
-0.245669 -0.201692 1.488220
-0.172511 -0.471988 2.079795
0.134240 -0.211040 1.086026
0.377656 -0.928734 1.752259
0.427162 -0.452617 0.909461
0.399645 -0.434210 1.441955
0.440206 -0.021502 1.252005
0.416058 -0.424472 1.201045
-0.234416 -0.933741 1.723035
-0.102675 -0.686065 1.786460
0.117979 -0.245920 1.255138
0.225167 -0.296393 2.240221
0.310805 -0.398621 2.162210
0.392686 -0.577687 1.386457
0.314225 -0.200228 1.039404
0.416098 -0.419753 1.175653
0.394378 -0.388175 1.402064
0.058610 -0.322226 1.029186
0.422423 -0.281625 1.576197
0.158657 -0.248704 1.105151
0.395882 -0.203321 1.666878
0.343678 -0.364598 1.924101
0.354129 -0.520709 1.881125
0.409746 -0.202901 1.516227
0.396299 -0.540201 1.444298
0.235076 -0.285179 1.073671
0.213029 -0.251123 1.986323
-0.225588 -0.428459 1.325248
0.256827 -0.455155 1.535983
-0.108509 -0.808403 1.795067
-0.145047 -0.570358 1.925896
-0.176735 -0.155261 1.322681
0.413334 -0.432774 1.050279
0.178891 -0.237674 1.158936
0.357543 -0.932439 1.452754
0.061760 -0.351854 1.039779
0.360350 -0.895533 1.746507
0.398205 -0.315443 1.413070
0.400518 -0.805113 1.390068
-0.248067 -0.271755 1.049172
0.175906 -0.572638 1.951580
0.346967 -0.942694 1.450142
-0.279410 -0.087454 1.593555
-0.311992 -0.180033 1.913009
-0.010329 -0.110897 2.117782
-0.006322 -0.826397 1.647676
0.181640 -0.835844 1.781337
0.411916 0.020920 2.052263
-0.211639 -0.532069 1.907461
-0.286224 -0.250273 1.818999
0.229691 -0.326011 2.205036
0.403138 -0.559702 1.356128
-0.283960 -0.314056 1.575388
0.214985 -0.883801 1.774748
-0.040086 -0.333782 2.040249
-0.022091 -0.342473 2.112195
-0.115422 -0.286339 2.065913
-0.251299 -0.527589 1.369500
-0.239305 -0.304667 1.530909
-0.027263 -0.236401 2.187372
0.014982 -0.869636 1.831269
0.049457 -0.591299 1.815864
0.400893 -0.373565 1.397212
0.145098 -0.670240 1.365461
0.417207 -0.171619 1.936069
0.014274 -0.230659 2.037248
-0.223077 -0.550295 1.873596
-0.248029 -0.273377 2.192350
0.136785 -0.658271 1.387777
-0.226932 -0.830995 1.815779
-0.224324 -0.512821 1.888539
-0.041437 -0.564745 1.809002
-0.188197 -0.630107 1.773991
-0.266493 -0.342718 1.785622
-0.260925 -0.509578 1.878107
0.372316 -0.581367 1.945302
-0.250376 -0.323893 1.961071
0.143384 -0.890284 1.423766
0.408442 -0.287759 1.561914
0.180578 -0.379428 1.475177
0.437420 -0.263223 1.055233
0.452061 -0.803270 1.397968
0.227311 -0.348006 2.218828
0.042971 -0.566044 1.852042
0.421293 -0.564575 0.908960
0.397465 -0.326691 1.432648
0.425258 -0.099812 2.053964
-0.178674 -0.809536 1.364533
-0.156974 -0.463562 2.071700
-0.259932 -0.506696 1.841591
-0.213732 -0.338111 2.183509
0.013174 -0.667675 1.371440
-0.244429 -0.336983 1.428126
-0.119590 -0.254588 2.036186
0.009807 -0.646766 1.658867
-0.213194 -0.831479 1.785392
0.193872 -0.662679 1.396061
0.341288 -0.505269 2.043038
0.165808 -0.341198 1.095098
0.364322 -0.466667 0.882984
0.075653 -0.224868 2.020540
-0.199862 -0.321094 1.541402
-0.182647 -0.365038 2.126646
-0.176374 -0.937067 1.477663
-0.246656 -0.150537 0.979907
-0.074297 -0.593915 1.784254
-0.173210 -0.375793 2.158887
0.420393 -0.044887 1.972467
0.035576 -0.647494 1.385300
0.424339 -0.271894 1.144450
0.419683 -0.530851 1.261383
-0.173689 -0.132645 1.092805
0.209851 -0.535319 1.859629
0.363223 -0.381078 1.664160
0.386831 -0.318008 1.635673
0.355022 -0.383314 1.673074
0.119232 -0.193779 1.121842
0.377897 -0.299009 1.576037
0.414186 -0.560373 1.403233
-0.231726 -0.820894 1.376939
-0.238438 -0.660008 1.400518
-0.140591 -0.377883 1.735757
0.195798 -0.214886 1.263147
-0.249030 -0.153231 1.118408
0.035510 -0.276939 1.099548
-0.239268 -0.860460 1.385229
-0.259709 -0.261730 1.068978
0.371507 -0.178792 1.831206
0.376760 -0.017929 1.357148
0.309964 0.027406 1.424720
0.322840 -0.295538 2.147331
0.414418 -0.143370 1.156527
0.392315 -0.132485 2.249486
-0.257825 -0.508369 1.861518
-0.202868 -0.320106 1.233653
-0.220866 -0.870202 1.774617
0.064346 -0.671021 1.560009
-0.149323 -0.384618 2.152993
-0.243228 -0.287092 1.567480
0.165313 -0.286225 1.083871
-0.218324 -0.408357 1.472000
-0.138388 -0.644855 1.379566
0.230982 -0.320155 2.199770
-0.296382 0.024274 2.058853
-0.205946 -0.427095 0.875300
-0.052498 -0.131072 2.122065
-0.183213 -0.580540 1.371672
-0.082537 -0.575428 1.798689
0.395542 -0.939907 1.422440
0.409509 -0.557027 1.258551
-0.072091 -0.711141 1.538417
-0.206912 -0.375680 2.108934
-0.229338 -0.645990 1.391123
-0.181864 -0.238822 2.305360
0.388685 -0.129458 2.093184
0.418596 -0.088075 1.941250
0.411535 -0.138899 2.087700
-0.004867 -0.912334 1.410541
0.360441 -0.384686 1.444129
0.370065 -0.576094 1.407201
-0.185131 -0.452025 1.436423
0.365609 -0.914287 1.413184
0.387983 -0.557414 1.384260
0.219447 -0.356622 2.145711
-0.215982 -0.449055 1.400398
0.405558 -0.293852 1.502744
-0.111427 -0.437353 1.469246
0.419780 -0.422840 1.187605
0.388530 -0.900362 1.731838
0.365678 -0.243921 1.923089
-0.138091 -0.367950 2.136775
0.402416 -0.439579 1.879276
0.398881 -0.443966 1.859353
0.423523 -0.166598 1.656296
-0.211176 -0.395910 2.125560
-0.192910 -0.318066 2.151939
0.365302 -0.917478 1.766657
0.425780 -0.298171 1.127054
0.237602 -0.352867 1.112651
0.192075 -0.316770 2.179356
0.365345 -0.317830 1.546273
0.340355 -0.529862 1.946057
0.385782 -0.170644 1.874814
0.193018 -0.357000 1.186419
0.424005 -0.530830 0.963948
-0.214476 -0.815079 1.370751
0.394030 0.015567 1.085540
0.124003 -0.904550 1.403386
-0.243573 -0.420874 1.336449
-0.240258 -0.341668 1.464938
-0.182863 -0.849628 1.778515
-0.096546 -0.240263 1.234413
-0.235898 -0.925209 1.717395
-0.060877 -0.433076 2.055814
0.332034 -0.402814 1.667375
0.386011 -0.422865 1.436528
0.358459 -0.326884 1.530739
0.326497 -0.339777 2.229203
-0.205801 -0.596761 1.391440
0.145694 -0.555603 1.873036
0.427669 -0.436694 1.111938
0.029424 -0.410622 1.694053
0.361883 -0.514812 1.469181
-0.247658 -0.494106 1.826780
0.394778 -0.305769 1.939625
0.395405 -0.486895 1.877668
-0.325137 -0.395075 1.854443
0.423448 -0.413868 0.891557
0.423663 -0.417956 0.894214
0.146381 -0.556192 1.656650
-0.135133 -0.194230 1.112156
-0.002462 -0.527558 1.923496
0.045567 -0.842188 1.383374
0.415485 -0.412207 1.369965
0.412283 -0.141374 1.162164
0.257015 -0.334800 1.138811
-0.053500 -0.873996 1.393035
0.391313 -0.329133 1.520351
-0.037633 -0.365079 1.054052
0.198426 -0.557539 1.867754
0.138408 -0.322794 1.082645
0.144690 -0.827725 1.419636
0.391104 -0.337588 1.493408
0.411265 -0.211843 2.091172
0.399237 -0.273721 1.616001
0.096441 -0.591253 1.758363
0.390751 -0.322242 1.577915
0.321565 -0.345533 1.659281
0.408212 -0.296770 1.592291
0.366383 -0.631096 1.404516
0.329047 -0.645465 1.410217
-0.207819 -0.449292 1.378857
-0.220788 -0.484501 1.828918
0.384050 -0.375421 1.982783
-0.135497 -0.660215 1.509992
0.414364 -0.487468 0.904517
-0.239007 -0.426143 1.164142
0.393640 -0.326234 1.522416
0.396235 -0.333033 1.472832
-0.174807 -0.905120 1.432342
0.342893 -0.329463 1.640085
0.352111 -0.386723 1.654721
0.176554 -0.531533 1.839485
0.401466 -0.302041 1.309229
0.190786 -0.669147 1.403388
-0.029332 -0.445151 1.483978
-0.431335 -0.174265 1.632820
0.185851 -0.374082 1.604735
0.450532 -0.504303 0.897338
0.429989 -0.445857 0.955518
0.191723 -0.367906 1.125327
0.011283 -0.657346 1.395468
0.032409 -0.588426 1.822125
0.428857 -0.332357 1.951301
