0.268215 -0.038224 0.585062
-0.160413 -0.238836 1.466792
-0.555778 -0.259949 1.172135
-0.337984 -0.122537 1.162349
0.197253 -0.085146 0.730945
0.325799 -0.492055 1.243045
-0.352369 0.386183 1.360665
-0.440752 0.353093 1.597592
-0.262898 0.071828 1.128385
-0.169461 0.162898 1.132449
-0.381376 0.116180 1.389107
-0.011768 0.114552 1.335157
0.048427 0.169726 0.600543
0.187952 0.052261 0.598837
0.245188 0.086028 0.516801
0.130441 -0.007384 0.740124
0.111472 0.072227 0.699469
0.296343 -0.132918 0.679803
-0.309546 -0.412045 1.109501
-0.140527 -0.446720 1.207807
0.142391 0.165148 0.522986
0.071079 0.188135 0.606281
-0.505701 -0.069746 1.067241
0.190761 0.134607 0.617685
0.164090 0.068807 0.613692
0.137622 0.157132 0.500765
0.259816 0.127612 0.492560
-0.283866 -0.272966 0.997546
-0.278040 -0.061940 1.087451
0.136809 0.031374 0.682859
0.225614 0.137948 0.556906
0.138864 0.063795 0.663970
0.223770 -0.021878 0.609136
-0.460458 0.036883 1.463162
0.160907 -0.056390 0.792461
0.192840 -0.018536 0.645445
0.167326 -0.298264 1.462049
-0.460666 0.321786 1.062337
0.127436 0.100894 0.684216
0.207440 0.055925 0.571932
0.547342 -0.264684 1.312064
0.297964 -0.067087 0.589881
-0.135125 -0.267077 1.107428
0.292679 -0.116906 0.661745
0.219404 0.105164 0.559245
-0.167440 -0.071859 0.986000
-0.237877 -0.258484 0.993374
0.275169 0.058293 0.502726
0.100437 0.130908 0.735667
0.103855 0.066027 0.649831
-0.485156 -0.103250 1.054054
0.272347 0.082641 0.496190
0.032535 -0.008894 1.388603
-0.074128 0.110747 1.495385
0.247931 -0.113000 0.712600
0.227063 -0.309471 1.300243
-0.372384 -0.136196 1.263342
0.221319 0.009792 0.618315
-0.347432 0.371485 1.353094
-0.177018 0.164037 1.163175
0.267427 0.130980 0.509436
0.150734 0.129928 0.703851
-0.295361 -0.277592 1.002024
-0.566579 0.162502 1.579402
0.133624 -0.302729 1.474539
-0.329715 -0.172292 1.020269
0.272752 -0.029278 0.658377
0.064031 0.099946 0.785939
0.157256 0.073573 0.569768
0.296889 0.168650 0.610563
-0.414732 0.034506 0.995655
-0.566082 -0.266690 1.194186
-0.262884 -0.160026 1.028767
0.226729 0.016582 0.568123
0.241509 0.008026 0.596490
-0.287794 -0.387477 1.043034
-0.316250 -0.116735 1.072052
-0.469001 -0.131653 1.148128
-0.381332 -0.121433 0.995119
0.137055 0.095976 0.670754
0.206026 0.058605 0.577297
-0.295213 0.174609 1.122384
-0.200702 0.277173 1.155118
-0.218715 -0.297371 1.035452
-0.175720 -0.332669 1.032600
0.161027 -0.066105 1.171359
-0.206120 0.070935 1.145291
0.120359 0.012029 0.726236
-0.125587 0.242849 0.747833
0.250472 0.030379 0.479775
0.066944 0.087965 0.795591
0.208433 0.110206 0.547621
0.136609 0.033601 0.681746
0.292164 -0.008485 0.534513
0.200059 -0.048668 0.674355
0.264771 -0.088844 0.657176
0.114968 0.063818 0.690047
-0.403907 -0.127502 1.052226
-0.162608 -0.254231 1.032599
-0.168870 -0.293543 1.026093
-0.373231 0.032017 1.124771
0.059859 0.085691 0.744078
0.259266 0.066376 0.523276
-0.028884 0.186530 0.761478
0.048424 0.171953 0.499966
-0.214645 -0.387895 1.226173
0.200813 -0.020364 0.648423
0.173336 -0.047250 0.708876
0.156206 0.114799 0.661924
0.331517 -0.076892 0.586081
0.193176 -0.087904 0.729969
-0.146519 -0.170974 1.078612
0.227382 0.020455 0.515857
0.147958 -0.068350 1.114089
-0.162249 -0.150519 1.004057
-0.063676 0.166989 1.097047
0.158710 0.065884 0.631048
0.244371 0.141592 0.531741
-0.172016 -0.420445 1.105227
-0.086058 -0.133183 1.463251
0.216566 -0.310217 1.265901
0.232640 -0.102473 0.711218
-0.052614 -0.439068 2.001650
0.242479 -0.050893 0.626914
0.279348 -0.160074 0.734804
-0.223363 0.009846 1.139011
-0.376523 0.063149 1.160703
0.204401 0.037916 0.585563
0.371123 -0.172846 0.700428
0.273523 0.073198 0.570431
-0.039548 -0.407182 1.833618
-0.178610 0.131128 1.163076
0.162869 -0.076326 0.785422
0.244691 -0.046122 0.619331
0.394687 -0.088819 0.553224
0.257679 0.102627 0.510343
0.455104 0.181113 0.411785
0.266322 -0.090828 0.658370
0.238482 0.020218 0.554761
0.273409 -0.046524 0.585896
-0.160299 -0.304093 1.493487
0.137479 0.028554 0.679405
-0.077212 -0.088474 1.464927
-0.459563 -0.016724 1.457428
-0.356373 0.179153 1.073252
-0.400104 0.200321 1.142278
0.188444 0.051402 0.597538
0.220466 -0.009223 0.608719
-0.188765 -0.088657 1.152180
0.255270 0.051141 0.531782
0.027118 -0.007744 1.468848
0.095266 0.055104 0.748401
-0.363987 0.031803 0.873470
0.245744 0.142952 0.536811
-0.241410 -0.055793 1.025505
-0.443257 0.001174 1.251006
-0.186118 -0.089805 1.142727
-0.154435 -0.364855 1.119019
0.160541 -0.075366 0.775317
-0.182001 0.009003 1.149176
0.216475 0.116086 0.574291
0.168540 0.025926 0.630829
-0.061943 0.024209 1.478335
-0.219222 0.003817 1.110000
-0.247455 0.017387 1.126966
0.231777 -0.006042 0.585701
0.237376 -0.048612 0.613483
0.232400 -0.072601 0.713698
0.307287 -0.079540 0.598137
0.232254 -0.007556 0.585260
0.266769 -0.068092 0.630181
0.074749 -0.038863 1.435264
-0.083470 -0.132310 1.463056
0.134378 0.099528 0.671662
0.288223 -0.049339 0.572112
-0.350912 0.101776 1.303059
0.289469 -0.085427 0.623985
0.201378 -0.048478 0.672501
-0.028538 0.182263 0.735415
0.320609 -0.097195 0.607502
-0.162120 -0.303948 1.507445
0.359834 -0.281872 0.833610
0.394029 -0.396827 1.309398
0.409630 -0.093754 0.552247
0.473386 -0.037298 0.564435
0.183868 0.031565 0.607238
0.299581 -0.095995 0.634117
0.282629 -0.166945 0.754509
-0.173481 -0.423327 1.111598
-0.062632 0.190631 1.678968
0.265690 -0.054558 0.608875
-0.169070 0.160333 1.130906
0.330574 -0.108609 0.616296
0.281860 -0.133651 0.709685
0.253453 0.012264 0.545275
0.230750 -0.143320 0.783801
0.306552 -0.111511 0.619324
0.301624 -0.134175 0.683931
0.381286 -0.337204 0.939154
0.278695 -0.131601 0.700969
0.252642 -0.023020 0.580003
0.339941 -0.159007 0.647443
0.392890 -0.364305 1.218097
0.776019 -1.101001 3.035766
0.219795 -0.005272 0.481825
0.237406 -0.289735 1.253758
0.256526 -0.469434 1.346866
-0.076217 -0.100210 1.485994
0.300905 -0.156049 0.702922
0.294785 -0.085110 0.640612
0.303477 -0.132915 0.676460
0.071534 -0.039098 1.383834
0.260686 -0.218386 0.981009
0.494615 -0.439524 1.216526
0.306408 -0.111652 0.612236
0.208965 0.133386 0.570090
0.389953 0.057686 0.470478
0.441929 -0.035530 0.526967
0.462984 0.098109 0.420946
0.136698 0.067748 0.667827
0.271859 -0.088418 0.635466
0.437329 0.068165 0.525350
0.391565 -0.066624 0.533731
0.175185 0.145310 0.601376
0.238370 -0.003646 0.584052
0.063297 0.103155 0.797582
0.137238 0.066989 0.668019
0.365565 -0.404781 1.237571
0.206357 -0.129490 0.817519
-0.198155 0.053436 1.124612
0.284476 -0.066221 0.575340
0.214998 -0.037550 0.461333
0.163445 0.142396 0.615423
0.445337 0.146697 0.449621
0.433988 0.129590 0.480361
0.189646 -0.017227 0.648612
0.325417 -0.163083 0.623048
0.194508 -0.087385 0.731222
0.108997 0.018125 0.769771
0.422528 0.177414 0.446163
0.238079 -0.144295 0.751359
0.128072 -0.017569 0.767947
0.404087 -0.153184 0.616238
0.031219 0.153483 0.769397
0.267301 -0.068502 0.624961
0.147990 -0.292394 1.337674
0.329898 -0.130970 0.637799
0.276089 -0.027891 0.568214
0.209771 0.038575 0.573134
-0.057350 0.172365 1.518487
0.283812 0.024723 0.512598
0.229393 -0.021364 0.606689
0.376310 -0.378667 1.250628
0.403700 -0.124234 0.585809
0.517756 -0.030858 0.502962
0.677952 -0.535888 1.576221
-0.218562 -0.362487 1.028881
0.514189 -0.050329 0.503364
0.320441 0.099854 0.470749
0.409098 -0.381876 1.276252
0.209692 -0.037410 0.659994
0.351424 -0.402332 1.318697
0.289119 -0.092305 0.609855
0.245989 -0.009774 0.561016
0.243708 -0.019598 0.598966
0.322746 -0.096614 0.610229
0.174718 0.102812 0.620343
0.192117 -0.105058 0.756799
0.043848 0.139767 0.758425
0.247350 -0.027107 0.591794
0.127809 0.103319 0.683339
-0.164473 -0.307885 1.506173
-0.281171 0.160296 1.090710
0.242176 -0.080077 0.663685
0.246943 -0.108647 0.699804
0.194176 -0.037904 0.665132
-0.069143 -0.544917 2.436323
0.234793 0.115298 0.540868
0.331639 -0.116752 0.627633
0.313408 -0.134617 0.663918
-0.336085 0.087683 1.254908
0.472473 -0.093106 0.556366
0.513936 -0.034067 0.496221
0.350043 -0.401501 1.315562
0.204328 0.038175 0.581674
0.353520 -0.165456 0.662932
0.393090 -0.392187 1.294719
0.248654 -0.112221 0.703914
-0.457413 0.348909 1.315481
-0.176068 0.168480 1.169411
0.228791 0.015517 0.565684
0.226116 -0.023709 0.600303
-0.193278 -0.349232 1.095288
0.178274 -0.318889 1.472465
0.290475 -0.138384 0.743960
0.254889 -0.027713 0.563711
0.217379 0.049841 0.563077
0.028162 -0.193234 1.463298
0.238994 0.020467 0.552483
0.234954 0.000460 0.549085
0.238185 -0.146968 0.778264
0.321463 -0.358893 1.122768
-0.188360 -0.190033 0.929833
0.175675 0.103737 0.618585
0.280585 -0.131628 0.700026
0.208880 0.031105 0.583323
0.364306 -0.153384 0.652815
0.238870 -0.146507 0.754616
0.407153 -0.150913 0.620513
-0.128162 0.240355 0.742167
-0.261740 -0.159809 1.028425
0.190124 -0.017643 0.648407
0.220655 0.057258 0.566573
0.291181 -0.048582 0.573643
0.257366 -0.060796 0.626886
0.222056 -0.067125 0.678391
0.283075 -0.121258 0.624457
0.534992 -0.034006 0.496792
0.189667 -0.017050 0.649332
0.237835 -0.082323 0.679303
0.241171 -0.078710 0.664894
0.332270 -0.171008 0.703904
0.186267 -0.318643 1.402567
0.478550 0.097471 0.437439
0.502649 -0.012120 0.521384
-0.203225 0.112306 1.114079
0.218023 0.062112 0.557664
0.071220 -0.037243 1.432239
0.253173 0.050767 0.527927
0.584591 -0.405141 1.157106
0.735884 -0.452096 1.271832
0.611265 -0.456441 1.189999
0.161379 0.146390 0.624388
0.230646 -0.021329 0.605024
0.269973 0.022640 0.523933
0.441271 -0.381659 1.201001
0.468814 -0.417152 1.150726
0.211177 0.003625 0.610233
0.446220 0.170621 0.471770
0.507526 -0.016641 0.543457
0.252005 0.048381 0.526579
0.257503 0.107093 0.506290
0.500202 -0.056672 0.512374
0.247897 -0.112154 0.701862
0.316969 -0.092451 0.605288
-0.159971 -0.238947 1.426390
-0.036709 0.163756 0.622914
0.157436 0.065855 0.633492
0.274296 -0.047666 0.585933
0.319624 0.147760 0.457008
0.300012 0.055271 0.474403
0.342277 0.087309 0.449818
0.089781 0.063901 0.774168
0.481612 0.069434 0.433002
0.333621 0.139582 0.415851
0.325723 -0.493543 1.243134
0.375748 -0.269744 0.968315
0.137897 0.133108 0.657388
0.004537 0.154131 0.690980
0.168515 0.029400 0.650299
0.285864 0.026098 0.511562
-0.498913 -0.414896 1.023763
-0.958890 -0.200093 1.201249
-0.541777 -0.206556 0.979815
-0.178619 -0.238253 1.039180
0.257747 -0.061302 0.623713
0.492840 -0.104541 0.574568
0.528662 0.024039 0.528392
0.500050 -0.087368 0.550729
0.231423 -0.053429 0.649464
0.415401 -0.382635 1.284819
0.287079 0.028060 0.510296
0.257658 0.102997 0.505412
0.386612 -0.007413 0.498589
0.515348 0.003426 0.534306
0.393334 -0.067593 0.533352
0.456524 0.086629 0.557168
0.089297 0.062245 0.761494
0.577036 -0.400431 1.145549
0.245914 0.036446 0.536757
0.283960 -0.045172 0.576959
0.399815 -0.061345 0.535182
0.396305 -0.092966 0.555260
0.229887 -0.003032 0.537474
0.231998 -0.043161 0.595448
0.290887 -0.106473 0.618697
0.219865 -0.116049 1.015909
0.195346 -0.047480 0.677429
0.301491 -0.064418 0.601854
0.512514 -0.379830 1.154370
0.364496 -0.092527 0.566772
0.444329 0.194247 0.406602
0.294867 0.107024 0.463146
0.472914 -0.095258 0.560706
0.240596 0.017768 0.552581
0.462201 0.035346 0.543484
0.351801 -0.094949 0.583804
-0.002722 0.179689 0.768613
0.400308 0.138313 0.447698
0.202440 -0.049331 0.669462
0.469262 -0.002313 0.560852
0.217808 0.050712 0.564385
-0.511498 -0.240039 1.081455
0.293655 0.108162 0.464396
0.329474 0.130485 0.435602
-0.218383 -0.294894 1.038234
0.087653 0.133920 0.750473
0.536098 -0.445920 1.212084
0.228843 0.068806 0.549225
0.171691 -0.045786 0.702681
-0.008967 0.090181 1.265246
-0.437747 0.206200 0.887466
0.237288 0.093836 0.535627
0.526893 -0.003858 0.514752
0.249349 -0.008771 0.575822
0.240732 0.082490 0.518313
0.495124 -0.022096 0.521728
0.498142 0.043489 0.441046
0.466160 -0.073092 0.535110
0.140391 0.062609 0.665518
0.486450 0.085561 0.417901
0.530871 -0.442191 1.197554
0.286356 0.140476 0.482758
0.240138 -0.088250 0.679880
0.512123 -0.072566 0.550786
0.503644 -0.629163 1.586326
0.278817 -0.030003 0.561029
0.287492 -0.124145 0.652490
0.153688 0.137938 0.633341
0.087943 0.130970 0.694278
0.273601 0.036889 0.513405
0.456031 0.156785 0.448718
0.287480 -0.084543 0.620366
-0.114283 0.223083 0.710617
-0.174707 0.122566 1.140883
-0.126160 -0.290144 1.085127
-0.054599 0.199034 0.738226
0.266166 -0.008281 0.555701
0.231479 -0.053428 0.660542
0.409230 -0.029698 0.509380
-0.053866 0.125931 1.523545
0.503269 -0.067504 0.565392
0.311329 -0.106640 0.630922
0.431742 0.133378 0.422583
0.266536 -0.054598 0.607871
0.316202 0.138618 0.448103
0.535215 -0.061381 0.495485
0.502015 0.046147 0.526552
0.444346 0.072096 0.534093
0.503817 -0.067250 0.564618
0.533147 -0.066261 0.501311
0.301684 0.062320 0.470687
0.454956 0.107061 0.560076
0.186784 0.015456 0.621592
0.305712 0.058246 0.474515
0.055157 0.134533 0.736280
0.500069 -0.046532 0.535082
0.256963 0.058599 0.507315
0.394456 -0.040004 0.504705
0.422291 0.131332 0.345134
0.262017 0.124363 0.504216
0.507375 0.045021 0.538416
0.328419 0.131404 0.435251
0.327521 0.110447 0.441636
0.289774 -0.093943 0.588889
0.188334 0.052868 0.601032
0.466146 0.032884 0.546679
-0.195244 0.274168 1.147470
0.285624 -0.085016 0.626414
0.406366 -0.104216 0.555986
-0.305203 -0.279956 1.004639
-0.190365 -0.029434 1.148160
0.157615 0.063653 0.622201
0.452237 0.051538 0.521652
0.329066 -0.116366 0.626932
0.198149 -0.123291 0.803877
0.285596 -0.165792 0.744986
-0.225499 -0.087336 0.902801
-0.180922 -0.200269 1.280128
-0.172174 -0.253277 1.054643
0.157324 0.086793 0.627534
0.198661 -0.082203 0.729630
0.409855 -0.078034 0.536891
0.238127 -0.031677 0.602598
-0.011970 0.162006 0.686694
-0.214575 0.127775 1.125422
-0.439623 0.347096 1.587084
0.435331 -0.166493 0.623827
0.184882 -0.118115 0.825393
-0.171246 0.162340 1.136583
0.293909 -0.054151 0.578264
0.453679 0.172882 0.415389
0.252594 0.049639 0.528984
0.313336 0.137006 0.434476
0.180980 0.140119 0.584947
0.562669 -0.369042 1.112477
-0.001593 0.168081 0.757339
0.558826 -0.173609 0.630561
0.433202 0.033232 0.504617
0.322546 -0.188696 0.746965
-0.957339 -0.220418 1.313317
0.234254 0.134899 0.553397
0.260042 0.164833 0.485657
0.328384 0.110272 0.441769
0.452095 0.131751 0.548282
0.462148 0.114705 0.412824
0.300564 0.056933 0.479915
0.112380 0.065613 0.705084
-0.052297 0.128229 1.498533
0.166922 -0.023324 0.689961
0.186871 0.063712 0.595827
0.427808 -0.084134 0.542527
0.189207 0.066178 0.596822
0.181108 0.159750 0.631555
0.129588 -0.006899 0.735235
0.451173 -0.032041 0.541069
0.568693 -0.012909 0.565284
0.283369 0.040503 0.495216
0.267139 0.070645 0.484185
0.527739 -0.002010 0.515828
0.789652 -0.148794 0.716448
0.500167 -0.062838 0.568332
0.531526 -0.062239 0.489589
0.438584 -0.036746 0.522647
0.476362 0.085612 0.405855
0.538167 -0.043001 0.507570
0.398450 -0.197821 0.692606
0.372600 -0.017635 0.508930
0.134062 0.096706 0.671188
0.349476 0.013642 0.495930
0.278753 -0.160422 0.747491
0.319717 -0.130460 0.672937
0.261733 -0.175634 0.799838
0.321336 -0.172963 0.725922
0.274447 0.054221 0.503039
0.113622 0.078127 0.697403
0.303754 -0.132035 0.673504
0.176229 0.136632 0.629237
0.254944 0.023115 0.519041
0.299380 -0.096294 0.633009
0.541934 -0.163651 0.615345
0.237114 0.056293 0.533479
0.524704 -0.193674 0.683706
0.170216 -0.022185 0.679611
0.402081 -0.123891 0.584279
0.039470 0.139334 0.741480
0.498711 -0.054296 0.558190
0.307728 0.082281 0.456794
0.312517 -0.096507 0.610249
0.174785 0.145069 0.599502
0.412490 -0.029237 0.515056
0.410054 -0.055289 0.523992
0.171880 -0.037938 0.691016
0.466780 0.110587 0.492277
0.369517 0.219348 0.398804
0.117372 0.058472 0.675973
0.278881 0.072491 0.495195
0.351354 0.068531 0.479165
0.257321 0.104136 0.511111
0.501348 0.036956 0.467399
0.189001 0.052632 0.601269
0.300484 0.056633 0.474242
0.252870 0.050501 0.527835
0.460126 0.132134 0.427382
0.410126 0.163740 0.394144
0.486054 0.039810 0.559463
0.329019 -0.116280 0.627045
0.497923 -0.107366 0.588615
0.267300 0.119118 0.493919
0.533455 -0.033680 0.495883
0.529134 0.020474 0.526279
0.357507 0.021016 0.481365
0.218337 0.144234 0.635564
0.217930 0.063364 0.558842
0.246313 -0.027702 0.588886
0.254117 -0.059586 0.629749
-0.449453 -0.291485 0.972449
-0.235495 -0.295254 1.073437
0.270308 -0.088646 0.652396
0.140492 0.035033 0.693026
0.354727 -0.094968 0.577324
0.501927 -0.123788 0.578407
0.187129 -0.124506 0.837124
0.244975 -0.055196 0.629389
0.375218 -0.219450 0.810699
0.413130 -0.216547 0.792176
0.189829 0.040607 0.600749
0.180503 0.044797 0.610773
0.514038 -0.049918 0.503499
0.290532 -0.049044 0.574897
0.239518 -0.030934 0.606434
0.239208 0.019817 0.553793
0.521665 -0.083559 0.583294
0.423249 -0.131723 0.586507
0.483520 0.081497 0.426516
0.265516 -0.066938 0.628417
0.286709 0.089073 0.492278
0.385320 -0.005170 0.499656
0.287006 0.140533 0.476885
0.446622 0.159832 0.422154
0.289496 0.119983 0.471653
0.494005 0.052453 0.529609
-0.524618 0.057974 1.460653
0.290559 0.120554 0.471907
0.503761 -0.022768 0.489614
0.499271 -0.051454 0.552097
0.179544 0.033233 0.632367
0.255216 -0.005785 0.559165
0.488568 0.026784 0.547022
0.085625 -0.290502 1.463647
0.298083 0.172987 0.402369
0.365991 -0.073916 0.556420
0.238063 0.052809 0.541779
0.163701 -0.032130 0.988143
0.261599 -0.024979 0.585815
0.249799 0.068814 0.529263
-0.806748 0.137618 1.099560
-0.478624 -0.134210 1.164407
-0.551385 -0.368917 0.976924
0.482241 0.091706 0.415090
0.274644 -0.045490 0.549064
0.446459 0.148741 0.452081
0.174962 0.194131 0.658066
0.357199 -0.077581 0.562006
0.500225 -0.046918 0.534537
0.357392 -0.077920 0.560457
0.514493 -0.051254 0.503472
0.096972 0.135665 0.684506
-0.195597 -0.153434 1.144822
0.536161 -0.001352 0.529039
0.166523 -0.028312 0.689766
0.150072 0.122875 0.684364
-0.203118 0.245156 0.719972
0.506716 -0.002560 0.525183
0.499360 -0.086437 0.577474
0.328833 0.133017 0.436754
0.513908 -0.076248 0.559725
0.475591 0.127670 0.426853
-0.482392 -0.071459 1.035919
-0.292473 -0.390904 1.053496
-0.447192 0.083463 0.861799
-0.421511 0.004447 1.091819
-0.398555 -0.095252 1.005495
0.032238 0.158916 0.789926
0.182072 -0.324921 1.500632
0.217846 0.064680 0.557256
0.208071 0.138204 0.603265
0.270957 0.078519 0.494458
0.542212 -0.058586 0.496593
0.517459 0.044493 0.471808
0.189909 0.049151 0.593618
0.274678 -0.046180 0.587243
0.359413 0.145279 0.436089
0.293580 -0.088473 0.625002
0.179680 0.033788 0.633313
0.293726 0.033272 0.488816
0.480794 0.068791 0.432664
0.523057 -0.083244 0.582651
0.179969 0.035382 0.634806
0.731552 -0.133569 0.687340
-0.457811 -0.132288 1.118575
0.063436 0.132750 0.814033
0.080321 0.165249 0.499734
0.443310 -0.017067 0.534715
0.291168 0.098254 0.469102
0.303730 0.026278 0.491940
0.354959 0.036651 0.476252
0.235283 -0.147427 0.776040
0.186659 0.011159 0.616974
0.555141 -0.102911 0.599383
0.558441 -0.102721 0.601894
0.536192 -0.020356 0.512418
0.174087 -0.089646 0.783407
0.488066 0.065130 0.422417
0.425987 -0.085454 0.541077
0.269974 0.071431 0.491845
0.331705 -0.115762 0.627347
0.238714 -0.133431 0.741495
0.289196 -0.081344 0.623384
0.219735 0.095441 0.550531
0.494813 0.049280 0.430673
0.268076 -0.027117 0.562480
0.191924 0.048266 0.590453
0.404878 0.228522 0.441777
0.091297 0.188424 0.484963
0.531371 0.047312 0.513362
0.268881 -0.088841 0.650870
0.309211 -0.078432 0.595626
0.354102 0.028528 0.478582
0.293536 -0.160503 0.720406
0.323258 -0.187519 0.749668
0.265146 0.041872 0.501232
0.330484 0.121016 0.576030
0.288140 -0.169930 0.735500
0.365396 -0.186895 0.702454
0.318539 -0.124152 0.836342
0.293052 0.116642 0.469214
0.462105 0.138100 0.413338
0.192351 0.148265 0.580387
-0.254742 -0.267449 1.033044
0.195062 -0.104638 0.765698
0.315851 0.130895 0.299732
-0.465224 -0.044925 1.034971
-0.467760 -0.075255 1.010395
-0.707795 0.365528 1.126901
0.284481 0.039637 0.497145
0.302476 -0.135875 0.715309
-0.206059 -0.074675 0.960519
-0.258577 -0.426742 1.274083
-0.590524 -0.213786 1.044495
-0.512461 -0.238118 0.967766
0.344699 -0.208567 0.769381
0.100139 0.130111 0.679595
-0.111335 -0.141747 1.470598
0.234225 -0.114269 1.037768
0.237136 -0.068827 0.659842
0.401551 -0.195094 0.696364
0.208442 0.061313 0.575090
0.271587 -0.014209 0.575275
0.388647 -0.208492 0.759319
0.427605 -0.214970 0.749892
0.367962 -0.186576 0.703738
0.463511 -0.177458 1.082729
-0.181928 -0.176728 1.050960
0.504642 0.041907 0.476267
0.395369 0.202489 0.432661
0.447332 -0.034020 0.534586
0.518509 -0.073232 0.564583
-0.439853 0.337004 1.267487
0.444065 -0.132562 0.584161
0.265266 0.105497 0.500855
0.354848 0.037727 0.480544
0.332443 -0.028951 0.548692
0.076556 0.147181 0.603083
0.448955 0.098327 0.505647
0.242265 -0.145159 0.780034
0.127645 -0.016790 0.773858
0.457640 -0.143875 0.589800
0.546985 -0.096360 0.599603
0.285202 -0.068813 0.591337
0.461815 0.130609 0.460775
-0.465943 0.208026 0.987579
-0.477815 0.100497 0.916592
-0.196133 -0.401552 1.077272
0.117017 0.041142 0.867415
-0.595073 0.008838 1.150420
-0.169812 -0.180961 1.111588
-0.912022 0.078871 1.201730
0.090481 0.143736 0.672568
0.401719 -0.106690 0.567097
-0.837330 0.066286 1.114910
-0.561224 -0.096675 1.044982
-0.795457 0.131653 1.086790
-0.515117 -0.177319 1.008242
-0.215551 0.078815 1.182531
0.025190 -0.006754 1.462810
-0.479134 -0.048626 0.922245
-0.571879 0.105021 1.624341
-0.485121 -0.345418 1.028110
0.033386 0.023382 1.390930
0.263933 -0.066071 0.628365
0.314480 -0.179452 0.704522
0.469960 -0.006963 0.527060
0.239072 0.065258 0.524328
0.191402 -0.039614 0.666033
0.459744 0.134359 0.556934
-0.762554 0.093917 1.121035
-0.778779 0.043926 1.114982
-0.964847 -0.156726 1.148322
-0.772384 0.051399 1.045480
-0.933870 -0.228751 1.268926
0.258021 -0.059436 0.619449
0.251157 -0.011449 0.563333
0.154644 0.138722 0.633686
0.273506 -0.048132 0.586072
0.179326 -0.102201 0.809820
-0.213005 0.124885 1.126618
0.156681 0.052567 0.548924
0.348023 0.106851 0.400150
0.520935 0.096217 0.450681
0.262291 0.122421 0.501694
0.329159 0.056837 0.472154
0.155201 0.138256 0.632848
-0.340927 0.362631 1.337118
0.306975 -0.025507 0.528139
0.217829 0.024976 0.576284
0.425114 -0.197378 1.043387
0.292664 -0.174328 0.754335
0.293570 -0.116606 0.661626
0.397928 -0.225984 0.783375
0.275036 -0.197010 1.021059
0.421022 -0.163675 0.625626
0.206085 0.059159 0.575461
0.405034 -0.221916 0.796197
0.247360 0.001594 0.577769
0.272462 -0.206104 0.997670
0.317003 0.096576 0.460439
0.163423 -0.059963 0.758074
0.443182 -0.133028 0.583204
0.167300 0.029042 0.642240
-0.802488 -0.195263 1.029448
-0.774323 -0.138418 1.027042
-0.882637 0.133768 1.116829
-0.411095 0.034122 0.993893
0.272649 0.081081 0.500988
0.262581 0.094099 0.483516
0.484420 0.217831 0.448093
0.068878 0.164182 0.631090
0.251004 0.077474 0.513691
0.365871 0.034930 0.506446
0.491542 0.039421 0.540240
-0.544464 -0.209044 0.981666
-0.493670 -0.023327 0.977355
-0.268587 -0.350896 1.005521
0.282064 -0.109106 0.201083
0.280821 0.111273 0.403629
0.535885 0.038981 0.549405
0.308729 0.088007 0.463502
0.087782 0.104687 0.738106
0.138553 0.090342 0.601010
0.425757 0.193233 0.494311
0.403429 -0.162406 0.647690
0.283157 -0.153351 0.756287
0.397477 -0.133449 0.600170
0.134699 -0.030535 0.779117
0.280134 -0.151328 0.727079
0.373117 -0.155739 0.648711
0.127489 -0.018930 0.770354
0.296394 -0.114420 0.655117
0.397080 -0.134621 0.597872
0.349484 0.066304 0.469919
0.474708 0.112767 0.460043
0.360314 0.140778 0.433667
0.113657 0.017771 0.727590
0.499620 -0.086807 0.582508
-0.684946 -0.135279 0.940202
-0.561250 -0.058974 1.083250
-0.438983 0.077552 0.846808
-0.441732 0.078759 1.606953
0.229748 0.089451 0.543298
0.489564 0.075801 0.520199
0.314996 -0.014873 0.535800
0.372935 -0.169929 0.669273
0.289842 -0.081870 0.623435
0.055953 0.051077 0.651645
0.345794 -0.179858 0.719506
0.327693 -0.184227 0.744696
0.336891 0.001036 0.514813
0.449829 0.082867 0.428126
0.491591 0.073221 0.421452
0.328011 0.133981 0.389315
0.178901 -0.104198 0.821989
-0.507917 0.151350 0.972409
-0.354975 -0.169570 1.143817
0.393129 -0.133208 0.602484
0.282117 0.035377 0.456445
0.329338 -0.039013 0.529711
0.310629 -0.075251 0.599207
0.173468 0.020481 0.647827
0.290477 -0.175764 0.750346
0.364238 -0.155308 0.652816
0.258903 -0.051022 0.608121
0.322707 -0.196622 0.748298
0.228317 -0.056700 0.655599
0.278973 -0.029091 0.558871
0.220219 0.023214 0.574197
0.224506 0.048030 0.534451
0.236475 -0.146138 0.779165
0.504564 -0.068456 0.564385
0.285997 -0.165897 0.744192
0.053656 0.154880 0.843944
0.469186 -0.006441 0.527261
0.301072 -0.151439 0.744017
0.272718 -0.044778 0.579626
0.170719 -0.040275 0.689267
0.063831 0.106465 0.785716
0.586762 -0.168908 0.718896
0.372042 0.173085 0.359631
-0.692670 -0.138295 0.942923
0.301790 -0.132895 0.676217
0.193216 -0.062043 0.716249
0.559550 -0.119002 0.632410
0.442687 0.166238 0.507836
0.434454 0.103294 0.504208
0.436267 0.155525 0.502370
0.296773 -0.172466 0.760816
0.495895 0.096738 0.448641
0.452240 -0.114753 0.618951
0.410037 -0.180016 0.668077
0.429675 0.094331 0.472091
0.430552 0.095778 0.474704
0.339078 0.151825 0.426073
0.502991 -0.067907 0.565541
0.495998 0.018498 0.528682
-0.455658 0.241601 1.097167
-0.188280 0.085536 1.042401
-0.568487 -0.097377 1.049054
-0.288788 0.333222 1.390849
-0.519136 -0.329870 1.074556
-0.326642 0.340291 1.348377
-0.189968 -0.240834 1.089072
-0.260043 -0.268804 1.041235
0.464279 0.133977 0.480622
0.195766 -0.098137 0.752977
0.502019 -0.070665 0.530950
0.345551 0.127418 0.438625
0.488627 0.036154 0.561171
0.287381 -0.109082 0.642852
0.167430 -0.022977 0.695157
0.262831 0.009880 0.298149
0.172031 0.018803 0.654908
0.187530 0.016822 0.630375
0.252249 -0.022836 0.580989
0.272391 -0.088359 0.645046
0.338944 0.093622 0.446230
0.188555 -0.211448 0.767173
0.185478 0.010641 0.633479
-0.028973 0.209755 0.886631
-0.102686 0.264121 0.904115
0.035717 0.184385 0.899217
0.399731 -0.037530 0.523373
0.540389 -0.021949 0.516046
0.341128 0.086752 0.448721
0.482804 0.156323 0.392024
-0.637574 0.331959 1.070650
0.255558 -0.021407 0.581427
0.209910 0.038091 0.588162
0.409134 -0.217896 0.783992
0.336723 0.015668 0.493226
0.188172 -0.120365 0.828785
0.276952 -0.101149 0.659099
0.292379 0.099126 0.472686
0.411950 -0.028631 0.509705
0.465488 0.111951 0.495243
0.268227 -0.090183 0.667081
0.366646 -0.176045 0.688686
-0.264932 0.288564 0.725073
-0.389787 0.017434 0.953707
-0.190907 -0.343968 1.075311
-0.846134 0.111972 1.081570
-0.502983 -0.237641 0.953570
0.187197 -0.123951 0.819997
-0.312834 -0.281495 1.023207
-0.936290 -0.226711 1.278794
-0.488782 -0.069056 1.047588
0.306658 0.027207 0.505701
0.196941 0.128289 0.535626
0.479836 -0.177431 0.653816
0.734927 -0.127545 0.732956
0.299621 0.079016 0.438632
0.437485 0.150400 0.406378
-0.463497 -0.050653 0.899277
-0.390482 0.037795 0.934582
0.334444 0.014674 0.493702
-0.425584 -0.211955 0.803762
-0.158309 -0.326981 1.080681
-0.558018 -0.375661 1.143345
-0.559454 -0.376714 0.995259
-0.568557 -0.380706 1.012939
-0.349428 -0.265064 1.085737
0.273641 0.115374 0.484271
0.287422 0.092717 0.460380
0.505356 0.063188 0.439099
0.432372 0.194750 0.441376
0.271242 0.076488 0.498207
0.202501 0.060541 0.579192
0.189241 0.062212 0.591912
0.258404 -0.020241 0.583238
0.218959 0.066741 0.561741
-0.143284 -0.232630 1.034775
0.242646 -0.003323 0.571877
0.277353 -0.208076 0.823286
-0.015722 0.161071 1.088293
-0.025329 0.183066 0.761095
-0.061115 0.168118 1.109944
0.153007 -0.048038 1.395844
0.171524 0.015195 0.642023
0.347935 -0.081940 0.557119
0.086523 0.156122 1.025131
-0.114082 -0.136133 1.489998
0.449331 -0.176143 1.138005
-0.145373 -0.234220 1.039793
0.402375 -0.210089 1.258661
0.296399 -0.136701 0.671029
-0.008132 0.103903 1.351473
-0.454456 0.079626 0.808668
0.378504 -0.200994 0.729252
-0.114734 -0.133939 1.498581
0.340755 -0.163917 0.673099
0.325448 -0.172886 0.713554
0.209571 0.035054 0.582918
0.407479 -0.207622 1.267775
0.325780 -0.194802 0.754740
0.321801 -0.209419 0.803694
0.361924 -0.154840 0.665676
0.407931 -0.207121 1.268027
0.267722 -0.067715 0.628378
0.280352 -0.023574 0.565049
0.251620 -0.059022 0.628416
0.203537 0.067052 0.585722
0.433313 -0.163000 0.618237
0.401427 -0.122964 0.585492
-0.738365 -0.202224 1.013562
-0.201394 -0.381001 1.037048
-0.278049 0.082082 1.166586
-0.482966 -0.218388 0.935734
-0.723085 0.183842 1.130351
-0.042411 0.150842 1.249129
0.245138 0.077149 0.521605
0.268848 0.031827 0.498789
0.173219 -0.037863 0.691931
0.444519 0.196097 0.405041
0.167405 0.028150 0.638612
0.238455 -0.080953 0.679431
0.488532 -0.054503 0.530887
0.510322 0.006369 0.525642
0.398250 0.166297 0.516523
0.404620 -0.179536 0.663239
0.241344 -0.028683 0.608791
0.432113 -0.163758 0.618623
0.298015 -0.151043 0.739455
0.158267 0.067958 0.634800
0.138106 0.032626 0.690225
0.309927 -0.057865 0.608447
0.255206 -0.025372 0.575267
0.263692 -0.065227 0.628536
0.156849 -0.008204 0.689252
0.342850 0.166267 0.447329
0.433159 -0.200445 0.695062
0.253390 -0.177708 0.803375
0.130752 -0.009017 0.711753
0.292991 -0.183017 0.697299
0.195896 0.047296 0.606505
0.254753 -0.108931 0.753331
0.119893 0.025680 0.906162
0.299268 -0.205973 0.790605
0.257614 -0.049958 0.604445
0.278599 -0.163486 0.759612
0.338102 -0.212572 0.807589
-0.609941 0.374734 1.147621
-0.173972 0.221158 1.173436
0.005300 0.063028 1.224797
0.069879 0.169532 0.905318
0.335335 -0.216137 0.800470
0.298208 -0.089061 0.635973
-0.540847 -0.100895 1.008118
-0.200302 -0.205269 1.084073
-0.269397 -0.299371 1.080194
-0.640632 -0.077160 1.018635
0.189056 -0.040289 1.024929
0.216833 -0.119752 1.004431
0.348754 -0.081037 0.559366
0.269782 -0.022167 0.570314
0.132422 0.113964 0.739911
0.212053 0.125465 0.489684
0.402922 -0.101971 0.545570
0.696800 -0.154988 0.578105
0.463679 0.101439 0.390515
0.477323 0.044197 0.584628
0.285324 -0.168065 0.738839
0.262572 0.034772 0.499498
0.186625 -0.117451 0.829999
0.391236 -0.139832 0.589906
0.470841 -0.006383 0.525079
0.292537 -0.155368 0.732127
0.395651 -0.223611 0.836937
0.142470 0.022103 0.626519
0.385103 0.155985 0.431470
0.513589 0.038081 0.485657
0.532580 -0.074618 0.493122
0.163311 0.074895 0.630681
0.278000 -0.029042 0.560861
0.370384 -0.184796 0.709291
0.251036 -0.110245 0.737752
0.404890 -0.152590 0.617346
0.188769 -0.122334 0.825527
0.372702 -0.156502 0.648387
0.187042 0.014522 0.619931
0.402951 -0.178950 0.662623
0.254040 -0.109648 0.748551
0.332097 -0.035391 0.531764
0.328199 -0.117959 0.623773
0.319290 -0.169892 0.728389
-0.178233 -0.226829 0.951805
0.183783 -0.130326 0.817852
0.229916 -0.173663 0.879871
0.393085 -0.196155 0.698336
0.401452 -0.190163 0.790838
0.270780 -0.202874 0.999813
0.302898 -0.211450 0.884841
0.227609 -0.057844 0.654349
0.285732 0.011182 0.600897
0.294011 -0.054115 0.578178
0.424383 -0.215902 0.730586
0.189861 -0.119860 0.830884
0.339082 -0.211792 0.809358
0.121881 0.069800 0.698918
0.420971 -0.207114 0.712021
0.135339 -0.026845 0.784989
0.070592 0.181781 0.923589
0.384901 -0.112982 0.544252
0.245351 -0.007419 0.567425
0.423708 -0.216793 0.731864
0.325953 -0.196578 0.751214
0.203491 0.049280 0.566306
0.186725 0.060300 0.592886
0.390930 -0.109029 0.551365
0.171836 -0.087630 0.779712
0.265032 -0.008902 0.554030
0.334156 -0.124937 0.626943
0.243484 -0.081099 0.685618
0.281995 -0.095439 0.666951
0.390239 -0.016943 0.498612
0.379523 -0.205810 0.747787
0.244742 -0.065772 0.681810
0.261306 -0.027980 0.563773
0.175219 0.019618 0.647488
0.304594 -0.201176 0.802992
0.374820 -0.026499 0.486527
0.056474 0.149103 0.838080
-0.444604 0.084173 0.857518
-0.507985 -0.176542 0.994508
0.258728 -0.465489 1.339847
-0.173790 -0.296361 1.044440
-0.282655 -0.174060 0.906406
-0.192386 0.247609 1.000094
-0.069362 0.031862 1.561427
-0.883492 0.096865 1.182115
-0.159073 -0.217455 1.139075
-0.168484 -0.296890 1.032078
-0.175517 -0.257193 1.073763
0.202593 -0.349830 1.237376
0.093203 0.000859 0.759428
-0.564236 -0.170454 1.039153
-0.536329 -0.208488 0.959989
-0.375651 0.075375 1.135956
-0.910026 -0.212308 1.211912
-0.545918 -0.209592 0.972348
0.160609 -0.019024 0.678855
0.278457 0.035658 0.507189
0.445121 -0.152638 0.576676
0.309596 -0.190763 0.755611
0.233802 0.011092 0.574666
0.191239 -0.012183 0.654411
0.464532 -0.114898 0.568450
0.305192 -0.157880 0.708290
0.536863 -0.153106 0.616835
0.181754 0.161358 0.621725
-0.929306 -0.232009 1.123899
0.403926 -0.178613 0.663466
0.224071 -0.001728 0.586987
0.334771 -0.187725 0.698986
0.173234 -0.035651 0.696276
0.173068 0.020520 0.647594
0.416908 -0.146017 0.627028
0.329459 -0.169543 0.721815
0.367588 -0.186190 0.700199
0.246718 -0.107013 0.701545
0.323191 -0.126886 0.677057
0.591378 -0.200032 0.665326
0.127352 -0.015488 0.767435
0.328512 -0.192933 0.758676
0.512301 -0.198305 0.671743
0.459253 0.062579 0.479318
0.279270 -0.188231 0.803996
0.427891 -0.168192 0.613441
0.210451 -0.125242 0.965515
0.298539 -0.132508 0.681519
0.498058 -0.072457 0.559701
-0.563563 -0.082037 1.049275
-0.855454 0.060841 1.138737
-0.675158 -0.126317 1.044466
-0.119193 -0.383428 1.092633
-0.912020 0.078587 1.204268
-0.195773 0.169169 1.150448
0.060723 0.190911 0.784846
-0.138264 -0.242913 0.999585
0.458413 -0.179143 1.079970
0.000641 0.121779 1.339009
-0.195721 0.181391 1.147996
-0.210981 0.274085 0.660509
0.137106 0.133384 0.650759
-0.206585 0.268386 0.652766
0.305311 -0.204734 0.799522
0.131696 0.155847 0.694754
-0.234853 0.284384 1.270158
0.399825 0.153243 0.371275
0.353354 0.116899 0.388006
0.271262 0.031947 0.499089
0.508765 -0.009280 0.534664
0.458308 0.127472 0.453646
0.386202 -0.150385 0.632000
0.656885 -0.216709 0.791798
0.383412 -0.105303 0.944917
0.934989 -0.268157 1.299526
0.401247 -0.113075 0.570930
0.269770 0.054294 0.499894
0.502744 0.038699 0.447669
0.518064 0.039457 0.492913
0.470729 0.071803 0.612804
0.398793 -0.147311 0.576856
-0.477031 -0.264177 1.030796
-0.154789 -0.236247 1.134135
-0.087908 0.208285 0.693542
0.087527 0.171979 1.045685
0.080001 0.152557 1.019724
0.252586 -0.173188 0.685953
0.121464 0.004455 0.868835
-0.463761 -0.338734 0.837209
0.450702 -0.055949 0.547912
0.249337 -0.226122 0.932194
-0.041473 0.136406 1.256242
0.218191 0.051999 0.564437
0.375895 -0.013882 0.510868
0.169284 -0.044730 0.707264
0.097254 0.057111 0.849834
0.373705 -0.183833 0.691763
0.532008 0.080414 0.574349
0.425645 -0.202953 0.684380
-0.577587 -0.160085 1.046769
-0.158224 -0.360923 1.099947
-0.500582 -0.068141 1.064475
0.102204 0.016599 0.764297
-0.982461 0.178758 1.229001
-0.874776 -0.296814 1.166788
-0.482244 -0.071699 1.036791
-0.509147 -0.252880 1.093087
-0.422227 0.316434 1.117047
-0.443582 0.334727 1.155427
-0.591586 0.197823 1.100930
0.158381 -0.074306 0.780511
0.224546 -0.001474 0.586519
0.388596 -0.229499 0.764833
0.060858 0.128603 0.783159
-0.282940 -0.092406 1.384818
-0.164608 -0.243656 1.479829
-0.243411 -0.065937 0.992807
-0.107959 0.239328 0.696784
0.283686 -0.185650 0.809871
0.293134 -0.219267 0.858927
0.331524 0.004642 0.485547
0.267620 -0.211963 0.981736
0.472404 -0.204128 0.717735
0.332114 -0.198812 0.753112
0.281992 -0.218971 0.864333
0.454995 -0.196048 0.635615
-0.268233 -0.511278 1.223222
-0.635396 -0.131380 0.992075
-0.360075 -0.010308 0.965058
-0.241349 -0.053503 1.017381
-0.554582 -0.036579 1.186457
0.291770 0.104889 0.461388
0.499787 0.019337 0.543053
0.559870 -0.209353 0.671605
0.289619 0.146155 0.336617
0.390789 0.139768 0.352430
0.300626 0.101906 0.429414
0.163709 -0.011845 0.690429
0.382900 -0.196647 0.718355
0.278064 -0.124056 0.671481
0.227690 -0.154340 0.804252
0.358615 -0.156868 0.662772
0.125072 -0.108006 1.216185
-0.067760 0.282324 0.777239
0.117048 -0.317146 0.616429
0.384040 -0.217741 0.809767
-0.670815 -0.087190 1.002875
0.291188 -0.213873 0.984907
0.356054 -0.172412 0.697511
0.177911 -0.089955 0.747731
0.128419 -0.306714 1.474399
0.387014 -0.147707 0.626969
0.034505 0.025645 1.398057
0.196719 -0.066947 0.997375
0.300138 -0.232392 0.881337
-0.193777 0.268630 1.133547
0.164267 -0.023665 0.698869
-0.186517 -0.162798 0.998102
-0.162926 -0.075696 0.972483
0.245933 -0.164239 1.034158
0.253524 -0.063008 0.623964
-0.011770 0.311590 0.715596
-0.007073 0.092171 1.206283
-0.444529 0.135214 1.142678
-0.505893 -0.349492 0.906312
-0.238392 -0.334638 0.947892
0.379134 0.170318 0.416120
0.281958 -0.035497 0.569237
0.461435 0.128498 0.514034
-0.198210 -0.008549 1.199211
0.073172 0.132750 0.712146
-0.442765 -0.210346 0.984703
-0.532443 0.325373 1.032328
0.155679 0.106632 0.663704
-0.203131 0.264530 0.648475
0.131168 0.050743 0.730142
-0.144157 0.235853 0.642509
0.113201 0.016527 0.720918
0.165406 0.143718 0.614866
-0.225901 -0.157222 1.460845
-0.546107 0.031665 1.014325
0.028580 -0.191074 1.444458
-0.026061 0.122062 1.255850
0.380548 -0.143936 0.584786
0.126572 0.019639 0.886258
0.256876 -0.007513 0.559078
0.238962 0.019779 0.553374
-0.176067 -0.193805 0.978269
0.121003 0.136236 0.669914
-0.208837 -0.390577 1.074090
0.289025 -0.076441 0.588685
-0.458220 0.351320 1.326700
-0.178709 0.132919 1.161984
-0.432292 0.042895 1.032146
-0.501772 0.086383 1.345300
0.110014 0.063689 0.683963
0.357529 0.140082 0.342196
0.489159 0.064230 0.520083
0.230906 0.006383 0.582185
0.261858 0.056044 0.496420
0.373904 -0.016793 0.510677
0.229044 -0.109163 1.044106
0.185085 -0.031991 0.685482
0.326858 0.000324 0.549553
0.293251 -0.116632 0.661778
0.337966 -0.027891 0.537889
0.129249 0.038592 0.925267
0.196207 -0.123419 0.801011
0.338752 -0.074337 0.549745
0.274058 -0.103387 0.654322
0.248380 -0.038069 0.602557
0.322839 -0.219051 0.827743
0.218442 0.025777 0.577200
0.263138 -0.057426 0.605298
0.293287 -0.079652 0.626703
0.303138 -0.203347 0.802169
0.651357 -0.230606 1.185677
0.253902 -0.066383 0.610119
0.335402 -0.122653 0.630596
0.294410 -0.140128 0.662159
0.244352 0.085997 0.521640
0.161782 -0.029825 0.689908
0.195306 -0.085563 0.967308
-0.432780 -0.456632 0.899187
-0.000656 0.092999 1.216930
-0.498942 -0.324289 1.045878
0.111072 0.071360 0.703302
-0.505142 0.234898 1.046754
-0.198638 -0.153832 1.153104
-1.063109 0.467389 1.139049
-0.219759 -0.154812 1.207154
-0.766682 0.150269 1.062386
-0.260118 -0.160195 1.003287
-0.190143 0.241105 0.720200
-0.202119 0.235740 1.160669
0.247339 -0.028860 0.584283
0.755754 -0.122540 0.788658
0.445811 0.080499 0.351081
0.499318 -0.067573 0.487229
0.245109 -0.026354 0.594669
0.158621 0.167972 0.479453
-0.206629 0.225657 1.197963
0.216450 0.099191 0.554824
-0.378699 0.238875 1.377059
0.263492 0.139053 0.534435
-0.040168 -0.313236 1.537113
-0.057933 0.162734 1.110236
-0.911949 -0.220016 1.257944
-0.542165 -0.100465 1.009917
0.186098 -0.318322 1.422867
-0.762513 0.094020 1.125451
-0.470617 -0.217243 1.029353
-0.922781 -0.151815 1.110093
-0.292457 0.074800 1.138864
-0.196615 0.188787 1.172375
-0.918888 -0.230021 1.255020
0.136426 -0.305033 1.505634
-0.168435 -0.252025 1.045312
-0.260027 -0.161265 1.023809
-0.468043 -0.315207 0.996489
-1.324431 -0.375159 1.642345
0.312133 0.134598 0.430238
0.386198 -0.006030 0.499965
0.401593 0.147165 0.466271
0.325286 0.103256 0.424277
0.500445 -0.011679 0.517063
0.027655 -0.191620 1.473760
0.103583 0.138830 0.691663
0.108962 0.020205 0.859780
-0.573586 -0.053557 0.937287
-0.559332 0.113077 1.465234
0.413522 -0.040901 0.530281
0.554061 -0.083067 0.519166
0.343110 0.087133 0.449552
0.454603 -0.054620 0.558005
-0.443596 -0.134611 1.093066
-0.285084 -0.365022 1.070539
-0.501175 -0.354092 1.045414
-0.779087 0.337740 0.857620
-0.812206 0.354488 0.887537
-0.408053 -0.089002 1.026816
0.374450 0.163088 0.406355
0.401216 0.137297 0.327600
-0.489920 0.225535 1.023323
-0.473037 -0.317998 1.005689
-0.507709 -0.328323 1.056612
-0.298204 0.075934 1.156613
0.059344 0.175148 0.831404
0.053668 0.145093 0.773204
-0.425482 0.216981 1.189560
0.083467 0.068330 0.778358
-0.051016 0.189867 0.699255
0.102975 0.016274 0.762756
-0.110034 0.218868 0.701391
-0.019345 0.158026 1.091354
-0.132438 0.240978 0.726065
-0.284216 0.333336 1.389074
0.230509 -0.064996 0.654866
0.311308 0.112042 0.302286
0.288541 -0.132987 0.720378
0.335692 0.087901 0.443863
-0.743922 0.087195 1.103609
0.134078 0.025252 0.660840
-0.724463 -0.134256 0.977686
-0.548978 0.032450 1.017450
-0.133934 0.237030 0.740654
-0.489973 -0.173006 0.962422
-0.532364 -0.392949 0.960073
-0.492394 0.186178 1.066767
-0.157721 -0.306251 1.477250
-0.526872 0.216063 1.070189
0.527125 -0.044923 0.489847
0.164397 -0.059932 0.733622
0.244654 0.037712 0.634993
0.480963 0.059858 0.441788
-0.341981 -0.167506 1.108707
-0.205710 0.110524 1.118727
-0.538860 -0.431463 1.092282
-0.494722 -0.107521 0.939025
-0.907928 -0.222280 1.253824
0.107899 0.056919 0.661097
-0.339967 -0.263253 1.057075
-0.463827 -0.340520 0.989076
0.390724 -0.136528 0.566971
0.174013 -0.100512 0.793149
0.470073 0.053299 0.422267
0.398975 0.072600 0.375413
0.258655 0.105374 0.510796
0.535238 0.029150 0.541224
0.331447 0.077820 0.469934
0.258845 -0.072828 0.644697
0.217374 0.092620 0.524643
-0.552628 -0.422923 0.978371
-0.866728 0.066654 1.150460
-0.400409 0.256815 1.190472
-0.525100 0.101334 1.446502
-0.472901 -0.133937 1.146798
0.100915 0.020073 0.708049
0.553451 -0.083231 0.518935
0.184482 0.008454 0.856162
0.529065 -0.052269 0.482943
-0.944618 -0.144312 1.138038
-0.461634 -0.213826 1.014101
-0.537040 -0.004759 1.057179
-0.214691 -0.364542 1.165581
-0.184244 0.233300 0.712842
0.179445 0.150144 0.610869
-0.195795 -0.091258 1.164279
0.231914 -0.025542 0.607821
0.233062 -0.066492 0.653448
0.311241 0.059894 0.455881
-0.182343 -0.410173 1.100631
-0.025744 0.141170 1.295803
-0.217493 -0.193198 0.990178
-0.252285 -0.265336 1.017379
-0.893087 0.189652 1.000567
0.078864 -0.297804 1.467806
-0.152670 -0.226695 1.115937
-0.122800 0.212661 0.703492
0.355121 0.025256 0.477792
0.283980 -0.087139 0.680792
-0.201090 0.189054 1.180082
-0.458560 0.084614 0.809901
-0.560873 0.182915 1.051406
-0.164032 -0.244343 1.425379
-0.151695 -0.236095 1.115975
-0.552408 0.339619 1.058105
-0.461812 -0.139584 1.200365
-0.447856 0.051418 1.062506
-0.510715 0.057352 1.444779
-0.273254 0.076063 1.155114
-0.887699 0.142718 1.122865
-0.551287 -0.208102 0.986816
-0.072532 0.145379 1.012196
-0.221982 -0.299602 1.054702
-0.027448 0.183487 0.729046
-0.533427 0.062991 1.481561
0.132093 -0.004715 0.739856
-0.016694 0.148157 1.058846
-0.864442 0.166266 1.164943
-0.516982 0.092153 1.376873
-0.522901 0.022571 0.977752
-0.518163 0.021131 0.968740
-0.510966 0.352693 1.146826
-0.472477 0.031938 1.517057
0.061386 0.119484 0.785266
-0.215505 -0.302872 1.090997
-0.192279 -0.345988 1.071464
-0.161818 0.221446 0.994581
-0.168967 -0.252075 1.044344
-0.516852 0.026610 0.979987
-0.164026 -0.307018 1.482231
-0.243709 0.259261 0.684112
0.449204 -0.182476 0.618818
0.247363 -0.028117 0.587233
-0.027627 0.123261 1.300800
-0.218887 0.049324 1.106453
-0.206749 0.241290 0.646979
-0.236952 0.257261 0.674506
-0.184072 -0.022253 1.139779
0.339293 0.063444 0.462967
-0.338498 0.065454 1.070268
-0.387176 0.007446 0.941629
0.386024 -0.149886 0.630015
0.372822 0.177907 0.381553
0.346500 -0.241964 0.891588
0.451175 0.058083 0.566232
0.486465 -0.157823 0.606126
0.442032 -0.167298 0.648405
0.468617 -0.076128 0.538489
-0.469149 -0.074747 1.013596
-0.514558 -0.237921 0.971231
-0.601262 -0.441982 1.061402
-0.077683 -0.353540 1.273466
0.450321 0.098494 0.579101
-0.235625 0.257643 0.673612
-0.298444 0.092462 1.204605
-0.198090 -0.088035 1.178622
-0.189637 0.240679 0.721841
-0.472023 0.324587 1.076909
0.132219 0.029186 0.708818
0.155889 0.024493 0.653820
0.235777 -0.081475 0.684096
-0.300952 -0.042463 1.184356
-0.812158 0.123250 1.185937
-0.687667 -0.135174 0.941521
-0.168635 -0.180235 1.105021
-0.172395 -0.236169 1.011477
-0.505011 -0.176747 0.989385
0.483256 -0.158496 0.601070
0.466133 0.114650 0.415931
0.456136 -0.279279 1.092392
-0.638727 -0.037527 1.027735
-0.897365 -0.220258 1.238865
-0.472400 0.090700 0.829124
-0.040759 0.265561 1.114624
0.028039 -0.190183 1.452034
-0.238442 -0.164059 1.486776
-0.157394 -0.220739 1.143910
-0.429974 0.011055 1.107795
-0.233733 -0.168406 1.431924
-0.181779 -0.241212 1.311047
0.097228 0.134472 0.681469
-0.493126 0.342388 1.111866
-0.927615 -0.247386 1.195446
-0.512906 -0.222752 0.978567
-0.938443 -0.194249 1.091678
0.126977 -0.048343 1.371689
-0.224217 -0.296462 1.052168
-0.191843 -0.312945 1.091859
-0.402939 -0.089741 1.017643
0.104976 0.002013 0.800570
-0.952519 -0.201118 1.194646
-0.414373 -0.091406 1.040415
-0.208268 0.108559 1.168720
-0.217112 0.271137 0.777836
-0.460934 -0.216841 1.008949
-0.245362 -0.063363 0.997265
0.544274 -0.153577 0.632403
0.465385 -0.175320 0.623102
-0.186868 -0.239842 1.085322
-0.186272 -0.093608 1.127176
-0.380788 0.027712 0.935511
0.201060 0.054483 0.561053
0.268959 -0.036599 0.597627
0.279110 0.041868 0.624281
0.298294 0.119585 0.491767
0.456833 0.125644 0.608338
0.346633 -0.118255 0.613111
0.282831 -0.113119 0.212898
0.320805 0.162511 0.433487
0.099763 0.059088 0.586275
0.432815 -0.059137 0.506190
0.477106 0.087994 0.453000
0.288702 0.087955 0.438856
0.403197 -0.123163 0.591303
0.560598 -0.015554 0.522528
0.384181 0.156948 0.335423
0.531774 -0.020231 0.503558
0.122427 0.003219 0.770234
0.509573 -0.112844 0.614998
0.306419 -0.081202 0.606642
0.444303 -0.036554 0.537161
0.450589 -0.034569 0.548032
0.554354 -0.055910 0.518532
0.229491 -0.018939 0.631947
0.451468 0.099742 0.581261
0.484754 0.015647 0.597714
0.540799 0.013663 0.531068
0.399218 -0.037642 0.516333
0.296504 -0.066413 0.595267
0.243459 0.084614 0.523203
0.184779 0.018068 0.653838
0.139478 0.063211 0.663592
0.514028 0.050678 0.454137
-0.641546 -0.078592 1.019192
-0.152134 -0.236719 1.118405
-0.926087 -0.215183 1.231621
-0.182707 -0.238320 1.058178
-0.441484 0.132952 1.134967
0.149451 -0.308379 1.485328
0.133306 -0.233810 1.471930
-0.405315 0.297838 1.203186
-0.911648 -0.215234 1.214850
-0.527982 0.060345 1.472669
-0.931031 -0.148914 1.119379
-0.248703 -0.293265 1.013467
-0.195738 -0.314465 1.095535
-0.317870 0.307604 1.351179
-0.758226 -0.153640 0.938883
-0.509213 0.351296 1.144849
0.316692 -0.092801 0.605372
0.527980 -0.003905 0.515863
0.496676 0.030215 0.564342
0.324943 0.105307 0.429881
0.444073 0.170218 0.394228
0.572826 0.112162 0.557421
0.420633 -0.049889 0.536418
0.481680 0.014872 0.589165
0.427207 -0.084543 0.541715
0.260823 -0.035498 0.604434
0.454939 0.103115 0.514706
0.513542 0.006919 0.532213
0.508971 -0.073489 0.540238
0.434722 -0.143239 0.577678
0.168200 0.085724 0.627385
-0.185057 -0.203725 1.017398
-0.039652 0.130210 1.213515
-0.472068 -0.046061 1.045597
0.290146 -0.049929 0.570089
0.244580 -0.006792 0.567493
0.182009 0.018256 0.685990
0.589017 -0.077303 0.573941
0.388035 -0.009291 0.499296
0.475434 -0.008784 0.454212
0.312304 0.138634 0.437094
-0.424541 0.326446 1.231168
-0.397597 0.428878 1.500639
-0.147209 -0.293226 1.426395
0.206957 0.094861 0.529913
0.260659 0.112910 0.517613
0.531483 -0.015595 0.547263
0.429809 0.073202 0.218112
0.446687 0.086815 0.236794
0.147344 -0.087244 0.163405
0.176319 0.077627 0.293052
0.485738 -0.103302 0.559681
0.256191 -0.060518 0.626312
0.566110 0.006029 0.539899
0.318234 0.137114 0.311218
0.242244 0.031554 0.602501
0.323391 0.112556 0.404748
0.406767 -0.103784 0.559875
0.258602 -0.074835 0.640449
0.198015 -0.017307 0.663928
0.431070 0.144534 0.566041
0.455456 0.096965 0.588857
0.377575 0.169884 0.313943
0.528538 0.055915 0.474188
0.286304 -0.067251 0.606095
0.030364 -0.196818 1.479443
0.458293 0.007776 0.634424
0.555915 0.028771 0.552905
0.711979 -0.128431 0.697798
0.469204 0.105850 0.444484
0.409418 -0.181486 0.677608
0.382013 0.154777 0.330883
0.163723 0.148889 0.629085
0.417221 0.115879 0.374774
0.125468 -0.017287 0.699910
0.202048 -0.049031 0.669632
0.030686 0.159841 0.792138
0.451540 -0.086775 0.532211
0.599080 -0.102980 0.673465
0.080827 0.141021 0.653553
0.580715 -0.103566 0.629558
0.447597 -0.132815 0.597615
0.443911 -0.092517 0.579467
-0.080957 -0.136892 1.427476
0.329588 0.131342 0.389220
0.289872 0.091595 0.446782
0.583498 -0.198661 0.652999
0.261936 -0.011154 0.547223
0.260723 0.009487 0.562881
0.238119 0.076777 0.508040
0.341411 -0.237294 0.838993
-0.356241 0.256739 1.077731
-0.517818 0.062521 1.370526
0.229317 -0.019088 0.643797
0.135764 -0.312960 1.518466
0.438390 -0.120770 0.562594
0.727135 -0.147061 0.636594
0.444086 0.090675 0.559854
0.310351 0.064777 0.496130
0.152694 0.137753 0.553115
0.382419 -0.106310 0.582538
0.449611 0.056234 0.560699
0.258736 -0.010083 0.564361
0.378879 0.172174 0.316191
0.513398 -0.072557 0.635548
0.743170 -0.106419 0.776138
0.453589 -0.125023 0.590364
0.508226 -0.020768 0.489840
0.596039 0.509879 0.768779
