-0.057109 -0.046890 0.956528
-0.050030 -0.046517 0.953985
0.269962 -0.212391 0.801932
-0.051579 0.101997 0.964310
0.389257 -0.345432 0.898043
0.493995 -0.239533 1.035428
0.044115 0.103780 0.855785
0.038398 -0.040853 0.848186
-0.145116 0.046033 1.053787
0.268307 0.149840 0.850993
0.611687 -0.241390 1.148430
0.371084 0.110878 0.951258
-0.165838 -0.080215 1.071079
-0.158443 0.088316 1.078774
0.265897 0.140742 0.854765
-0.156447 0.084411 1.080223
0.373706 -0.195078 0.905803
0.266933 -0.171685 0.806491
-0.161237 -0.390188 1.052855
-0.250126 0.273606 1.229805
0.607909 -0.231316 1.141418
0.276505 -0.334504 0.793294
0.266572 0.267009 0.865584
0.349989 -0.385691 0.945915
-0.072200 -0.208915 0.943904
-0.048218 -0.050545 0.945646
0.151457 -0.174227 0.708628
0.251630 0.125895 0.838696
-0.044672 -0.204282 0.918516
0.265905 0.267832 0.870965
0.034241 0.104844 0.861075
0.253721 0.124594 0.838480
0.048942 -0.041977 0.835601
0.266075 -0.172787 0.804973
-0.247789 0.271161 1.232293
0.046739 -0.033532 0.852723
0.260367 -0.038125 0.816506
0.385938 -0.211258 0.915592
0.266656 0.259251 0.847327
0.049949 0.133130 0.861992
0.263747 -0.173661 0.805541
0.258217 -0.179454 0.799207
0.263523 -0.049069 0.820643
0.261953 -0.044615 0.819071
0.372673 -0.208097 0.908527
0.404258 -0.047679 1.031886
-0.043716 -0.205631 0.924567
-0.142104 0.044731 1.057471
0.148386 0.137970 0.759973
0.261155 -0.188388 0.796150
-0.262448 -0.386370 1.148878
0.408655 -0.212388 0.934435
0.296842 -0.197324 0.828673
-0.274654 0.062414 1.203728
0.611020 -0.243150 1.150458
-0.277245 0.205535 1.223124
0.383569 0.074185 0.934921
-0.162925 -0.222513 1.052357
-0.089376 0.045968 0.985733
0.307179 -0.467082 1.184618
-0.169707 0.054368 1.078794
0.048097 0.144812 0.858797
-0.087815 -0.404452 1.063743
0.185465 -0.022584 0.732244
0.070770 0.334652 0.880336
0.385594 -0.212742 0.917025
0.261005 -0.191916 0.801142
0.500563 0.081252 1.073338
0.509120 0.236460 1.092335
0.496161 -0.068492 1.049926
0.347776 -0.404398 0.982590
0.126658 0.295866 0.811906
0.344125 -0.214233 0.885296
0.602739 0.219869 1.189665
-0.265524 -0.091177 1.192037
-0.037464 -0.202406 0.912396
0.486847 0.085612 1.064688
-0.168657 0.081065 1.083554
-0.273417 0.063095 1.210224
0.379158 0.124182 0.955713
-0.061375 -0.212706 0.944827
-0.255923 -0.250305 1.179354
-0.164696 -0.056749 1.073630
0.280754 -0.200735 0.826683
0.210362 -0.374011 0.787770
-0.173162 0.232334 1.094177
0.643166 0.000238 1.189485
0.297040 -0.204016 0.836758
0.260295 -0.188981 0.795778
0.600252 0.219351 1.199187
0.752109 0.238772 0.920015
-0.263304 -0.091254 1.189117
-0.274138 0.206628 1.215246
0.159053 -0.456102 1.056014
-0.053308 -0.063151 0.956298
0.176043 -0.167700 0.713692
0.133586 -0.439565 1.019050
0.393784 -0.345261 0.904399
-0.055671 -0.056482 0.950723
0.419836 -0.930245 2.440316
0.034380 -0.355895 0.815903
-0.271064 0.217714 1.230164
-0.255740 -0.398470 1.145140
0.039698 0.248080 0.879202
0.311069 -0.371672 0.905561
-0.097752 0.048751 1.000021
0.514931 -0.076001 1.063771
0.688644 0.275473 0.846056
0.378546 0.103027 0.953617
-0.180875 0.080948 1.101814
-0.052956 -0.204072 0.935501
-0.047840 -0.358936 0.901232
0.044908 0.033213 1.509605
-0.176248 0.213190 1.103184
0.599142 -0.244978 1.171583
0.259356 -0.034226 0.821897
-0.091250 0.038712 0.988622
-0.164619 0.075652 1.071774
0.164824 0.147953 1.640706
0.172917 0.060286 0.726325
-0.174253 -0.230627 1.064817
-0.160111 0.073117 1.074093
0.113728 0.288570 0.829896
-0.269921 -0.090464 1.184820
0.160971 0.285273 0.780277
-0.046783 -0.054736 0.947051
0.174615 -0.018136 1.629773
0.183842 -0.433845 1.553088
-0.054904 0.033227 1.417235
0.199676 0.331946 0.893715
0.602995 -0.073674 1.163525
0.165285 0.135604 0.754654
0.141471 -0.577333 1.465799
-0.254260 0.274164 1.229259
0.019618 0.289688 1.022823
0.045568 0.267116 0.874848
0.092974 -0.290475 1.492970
-0.169452 -0.383153 1.029866
-0.270793 -0.239961 1.160222
-0.177832 -0.077609 1.081242
-0.167275 -0.095841 1.283483
-0.286655 -0.100976 1.173962
-0.149312 -0.219924 1.025571
0.046700 0.113761 0.871933
0.267356 -0.170142 0.662031
-0.115784 -0.377370 0.988178
-0.176110 0.223319 1.099755
-0.041339 -0.410190 1.015381
0.150781 0.051988 0.742054
0.155752 -0.177272 0.714916
-0.100064 0.302166 0.638404
-0.146281 0.043863 1.050764
-0.039639 -0.107683 1.399045
0.204927 -0.389836 0.828430
-0.169376 -0.095914 1.283331
-0.033486 -0.413132 1.360024
-0.162542 -0.235937 1.056425
-0.254711 -0.403610 1.142535
-0.274240 -0.094823 1.180723
0.083137 0.278811 0.851973
-0.040942 -0.281320 1.372406
-0.261101 0.055599 1.230895
-0.055686 -0.200825 0.929736
0.112027 -0.421845 0.981205
-0.151629 -0.073749 1.061919
-0.143405 -0.223919 1.030707
0.130879 -0.004220 1.559955
0.186228 -0.013899 0.781088
0.166650 -0.323590 0.689835
-0.059054 0.091313 0.977565
-0.066977 0.097074 0.987119
-0.036822 -0.418298 1.027654
-0.149633 -0.072302 1.056571
0.484406 -0.057013 1.037931
-0.167878 -0.105231 1.279759
0.051231 -0.178380 0.825753
0.200329 -0.389366 0.829418
-0.178341 -0.234841 1.064994
0.179162 -0.390763 0.826943
-0.156644 -0.412084 1.232517
-0.161260 -0.406422 1.235635
-0.153010 0.079537 1.091127
-0.011637 -0.113204 1.416373
-0.166992 -0.384455 1.030401
-0.063593 0.106667 0.986575
-0.013915 -0.431086 1.354576
-0.161348 0.054935 1.324992
0.045640 -0.186660 0.831005
0.053783 -0.337843 0.796449
-0.154239 0.247067 1.116294
-0.062762 -0.210775 0.949110
-0.154662 0.068043 1.068327
0.148309 -0.447642 0.905707
0.183484 -0.397379 0.845267
0.001593 -0.458250 1.135652
-0.087575 0.247731 0.992924
0.176647 -0.461601 1.266001
0.196222 -0.453251 1.538180
0.153408 0.283589 0.783135
-0.088052 0.039421 0.988628
-0.056836 -0.058269 0.960719
-0.151324 0.045600 1.325194
-0.133367 -0.417771 1.248605
-0.146045 0.094036 1.107227
0.158271 0.280399 0.776693
-0.035279 -0.203270 0.914432
0.052780 -0.334619 0.795762
-0.036408 -0.203215 0.914419
-0.032045 -0.425876 1.071255
0.040888 -0.462831 1.127799
-0.046460 -0.005034 0.973416
-0.049698 -0.110510 1.389492
0.054925 0.113244 0.863818
-0.163519 -0.224577 1.047567
-0.046983 0.101495 0.973622
-0.164759 -0.235474 1.070285
-0.263223 0.227287 1.234959
0.043013 -0.060780 0.843798
-0.168471 -0.087001 1.067008
-0.262277 -0.387175 1.146747
-0.118803 0.021219 1.018197
-0.258115 -0.252469 1.175865
-0.159753 -0.077069 1.068493
-0.276234 0.004463 1.213945
0.169014 -0.322191 0.689747
0.057305 -0.213278 0.817042
-0.158241 0.195606 1.347015
-0.166161 -0.399499 1.242079
-0.174789 -0.402364 1.242769
-0.009921 -0.279335 1.395791
-0.061205 -0.126186 1.391712
-0.054955 -0.273071 1.372458
-0.145907 -0.259250 1.279797
0.168890 0.194548 1.633179
-0.148164 0.248322 1.117977
-0.281339 -0.240093 1.156503
0.077890 -0.295779 1.481049
-0.161572 -0.379161 1.022858
0.073745 -0.300060 1.479327
-0.099934 0.304955 0.632744
0.062435 -0.330172 0.791652
0.080503 -0.438449 1.445044
-0.147562 -0.264671 1.275766
0.050278 -0.053729 0.852360
0.161764 -0.022948 0.733900
-0.243749 -0.406730 1.153543
-0.155925 -0.227981 1.029541
0.166968 -0.171306 0.711206
-0.243988 -0.405445 1.141630
-0.174892 -0.077070 1.079149
-0.045190 -0.043883 0.958063
0.386559 -0.210688 0.922318
0.171131 0.287271 0.788416
0.261351 0.132455 0.854273
0.074212 -0.297295 1.479755
0.170549 -0.318333 0.689428
0.148478 0.036264 0.738064
-0.046330 -0.051467 0.957183
0.091612 0.021766 1.540988
-0.024005 -0.368716 0.912464
-0.282601 0.048587 1.217567
0.084714 0.027216 1.536198
-0.249323 -0.095900 1.153483
-0.280864 0.054147 1.194303
-0.055910 -0.206698 0.935456
0.008190 -0.380182 0.919840
-0.135991 -0.024692 1.036144
-0.158829 0.102249 1.098365
0.043282 -0.195739 0.832909
-0.150866 -0.375087 1.013878
-0.140953 0.042130 1.048838
0.023269 -0.200143 0.845959
-0.174987 -0.076209 1.083151
-0.265695 -0.258337 1.185592
0.039959 0.114217 0.877347
-0.272525 -0.385685 1.129772
0.055904 -0.290654 1.467397
-0.048431 -0.044163 0.958079
-0.230349 0.056656 1.136694
-0.188904 0.271425 1.209683
-0.175345 -0.236669 1.060423
0.082879 0.023115 1.538928
0.071875 0.042325 1.529678
0.018810 -0.291187 1.478896
0.105211 -0.445654 1.452003
-0.151924 -0.030395 1.044474
-0.062536 0.096312 0.985793
-0.054945 -0.272836 1.365250
-0.056389 -0.123201 1.386310
-0.156522 -0.093223 1.294046
0.055967 -0.459847 0.954482
-0.090127 0.084828 1.000997
0.190203 -0.298794 1.575354
0.172292 0.132449 0.754669
0.180619 -0.014847 0.731556
-0.189138 0.079607 1.106578
0.211767 -0.000602 0.724664
-0.254601 -0.242945 1.165597
-0.055145 -0.208077 0.935225
-0.049004 0.190998 1.442052
0.145688 0.050518 0.744547
-0.164062 0.066769 1.311480
0.050090 -0.039491 0.851239
-0.236245 0.236995 1.242534
-0.245827 -0.398622 1.142406
-0.065009 -0.210849 0.949012
-0.260598 -0.252814 1.171938
0.217392 -0.392512 0.828540
-0.037779 0.034978 1.429530
-0.057276 -0.272261 1.361398
-0.271000 -0.242997 1.149804
0.151246 -0.048208 1.623629
0.198549 0.011998 1.628387
0.113551 0.008589 1.577918
-0.170574 0.029216 1.314215
-0.274027 -0.087838 1.174236
-0.258881 0.266537 0.786154
0.089236 0.125378 0.844274
-0.083048 -0.014022 0.984320
0.064450 0.128953 0.868383
-0.178845 0.057654 1.299070
-0.149987 0.047035 1.325066
-0.264872 -0.392173 1.136607
0.048039 0.113778 0.871274
-0.033318 -0.098691 1.397850
0.191081 -0.142125 1.596504
-0.172391 -0.230469 1.065021
0.064074 -0.288536 1.477653
0.006442 -0.433005 1.076298
-0.092661 -0.355054 0.906793
0.272563 -0.287139 1.468276
0.394738 0.120709 1.843394
0.117880 -0.025334 0.728863
0.509113 0.122476 1.073100
0.511678 -0.390738 1.209722
-0.160813 -0.096694 1.275807
0.293262 0.157107 1.547261
0.533350 -0.250159 1.194159
0.616005 0.066929 1.173593
-0.160086 -0.273721 1.261541
0.059314 -0.191219 0.836619
-0.046184 -0.137806 1.393911
-0.249625 -0.401673 1.131344
-0.037674 -0.367464 0.916554
-0.036094 0.242470 1.439191
0.187717 -0.395525 0.823005
-0.095235 0.306895 0.629093
-0.038976 -0.426259 1.354175
-0.162564 0.051471 1.071165
-0.095785 -0.059357 0.923633
0.163121 -0.011696 1.628344
-0.275790 0.067456 1.215088
0.488629 0.084535 1.051085
-0.200448 -0.231673 1.075020
-0.022846 -0.199411 0.901552
-0.156616 0.063809 1.067453
-0.178212 -0.076177 1.082005
0.209338 -0.436169 1.555923
-0.170444 -0.096892 1.282068
0.076374 0.036175 1.519634
-0.050362 0.056548 1.423447
0.062890 0.173857 1.545153
0.195497 0.003240 1.628039
0.093626 -0.440297 1.459282
0.082983 0.026833 1.537752
0.078137 -0.290078 1.483371
-0.142522 -0.025597 1.039649
0.027358 0.008963 1.503228
-0.257300 -0.400723 1.141311
-0.060434 -0.119669 1.386525
-0.139613 0.199769 1.358066
-0.170335 0.182724 1.342518
-0.163305 -0.399932 1.248729
-0.022354 -0.368950 0.913837
-0.154276 -0.118638 1.300210
0.077346 0.024842 1.529584
0.091341 -0.282867 1.493295
0.069403 0.008731 1.534390
-0.044341 -0.125368 1.389626
-0.161674 -0.089141 1.293446
0.192204 -0.457432 1.517449
0.083952 0.021381 1.547952
0.007762 0.289301 1.423802
-0.159981 -0.223096 1.051659
0.180842 0.156978 1.643957
0.050254 -0.444956 1.315200
-0.269486 -0.388899 1.142601
-0.164109 0.210983 1.324414
0.068940 0.013535 1.525568
-0.169088 0.048963 1.307279
-0.181691 0.060935 1.304935
0.044691 -0.197719 0.828202
-0.044675 -0.136743 1.393597
-0.078857 0.245476 1.432716
-0.276741 0.067236 1.194803
-0.276833 0.067819 1.194723
0.174129 -0.019792 0.739466
-0.270126 0.068010 1.208708
0.087512 0.220793 1.549252
-0.272082 -0.237798 1.160341
0.141752 0.169994 1.616016
-0.046655 -0.114606 1.396104
-0.032930 -0.366373 0.914361
-0.038281 -0.411540 1.358366
-0.158584 -0.278073 1.261308
0.040882 0.034281 1.506585
-0.250418 -0.402090 1.153110
-0.060784 -0.059271 0.965183
-0.167369 -0.075548 1.071666
0.171790 -0.183915 0.708216
0.071320 -0.125720 1.503708
0.084007 -0.441047 1.454544
-0.274230 -0.095143 1.170859
0.153810 -0.447778 1.516894
-0.015782 0.049074 1.410403
0.193825 -0.293767 1.581419
0.097629 -0.131027 1.494970
0.047431 -0.035142 0.851907
-0.270715 -0.245222 1.148773
-0.037850 0.032913 1.428325
0.205019 -0.021576 1.641292
0.113810 0.239540 1.558901
-0.147744 -0.105968 1.299296
-0.171666 -0.412262 1.237166
0.065586 0.029198 1.519371
-0.149014 0.060758 1.327048
-0.145993 -0.265610 1.282363
0.019067 -0.435892 1.351662
0.087484 0.179118 1.556108
0.181874 -0.132454 1.565268
-0.041079 -0.054594 0.943193
-0.061352 -0.062853 0.963408
-0.053483 0.048298 1.414805
0.044731 -0.045046 0.850612
-0.049566 -0.117735 1.387065
0.170776 0.145189 1.645676
-0.174392 0.059267 1.301489
0.423476 0.116571 1.825685
0.193485 -0.472902 1.282696
0.012700 0.071888 0.963286
0.050540 -0.201558 0.826997
0.164690 0.191546 1.630516
0.061915 0.023900 1.516515
0.064793 -0.204862 0.815833
-0.192990 -0.232652 1.074546
0.189526 -0.053630 1.624792
0.071813 0.018728 1.515362
-0.055831 -0.116600 1.381847
-0.149918 -0.264454 1.266999
0.504165 -0.247095 1.231187
0.531171 -0.253107 1.211961
0.391014 0.054995 1.414455
0.279749 0.038037 1.537238
0.481924 -0.256093 1.265721
0.068814 0.006087 1.533132
0.083692 -0.436318 1.451703
-0.175645 0.046184 1.304051
0.139807 0.274701 0.792563
0.048980 0.011769 1.516190
-0.156902 0.051795 1.304543
-0.091434 0.050357 0.999609
-0.138613 0.039088 1.045574
-0.041694 -0.259892 1.375127
-0.049814 -0.259193 1.375371
-0.055936 0.036836 1.411010
-0.214658 0.226030 1.273309
-0.030584 -0.278135 1.383764
-0.148302 -0.103352 1.292365
-0.144979 -0.220117 1.026552
0.572613 0.086516 1.053191
0.171886 0.199823 1.636932
0.067444 0.000118 1.537042
-0.153780 0.046138 1.322157
0.063376 -0.289176 1.467068
-0.148082 -0.225979 1.037091
-0.187612 0.088832 1.109616
-0.177428 0.071589 1.094287
-0.174720 0.073580 1.092594
0.206367 0.029082 1.615248
-0.172816 -0.383361 1.030019
-0.158762 -0.097120 1.293208
-0.161217 0.201751 1.340396
0.163853 -0.181058 0.722548
0.090927 -0.441959 1.462990
0.172667 -0.055870 1.624838
-0.271233 -0.241551 1.147092
-0.072039 -0.062413 0.969659
-0.241227 0.212468 1.276106
-0.200699 0.211934 1.305115
-0.076970 0.091118 0.992661
0.027169 0.162164 1.537218
-0.050873 -0.350379 0.908367
0.073493 -0.192945 0.803813
0.063281 -0.125138 1.493304
-0.152018 -0.265100 1.258299
0.116361 -0.382831 0.874951
0.161367 -0.186730 0.710979
0.068107 0.033825 1.519420
0.266448 -0.130609 1.531308
0.465829 -0.252108 1.280592
0.148026 0.023907 0.738320
0.601580 -0.072827 1.163945
0.520184 0.064946 1.278865
0.148048 0.195138 1.636566
0.148715 0.173397 1.617728
0.080419 -0.136371 1.511834
0.050239 -0.192848 0.829044
0.173119 0.155611 1.644078
0.040092 0.106380 0.875054
-0.187044 0.087217 1.107119
0.174113 0.147225 1.646712
-0.162694 -0.366576 1.023063
0.077527 -0.198466 0.805002
-0.031741 0.092108 0.947902
-0.220963 0.208056 1.297525
-0.126048 0.049681 1.042708
0.071107 -0.422119 1.461462
-0.064513 0.093131 0.980632
0.212489 -0.411838 0.844689
0.078734 0.035499 1.524007
-0.124122 0.293224 1.337954
0.138087 0.140307 0.756669
-0.043970 -0.278965 1.372194
-0.282658 0.310668 0.822866
-0.274824 -0.085113 1.170035
-0.274901 0.205135 1.231572
0.160646 0.275718 0.769901
0.069898 0.013908 1.526015
0.067810 0.021510 1.521195
-0.022503 -0.266702 1.368386
-0.050394 0.025867 1.419637
-0.163961 0.196736 1.341730
0.047972 -0.025147 0.853054
0.110626 -0.428671 1.456586
-0.149869 0.067295 1.066328
-0.170816 -0.076607 1.074709
-0.171062 -0.234056 1.054464
-0.146201 0.077115 1.064037
-0.169305 -0.366193 1.026146
-0.205490 -0.370710 1.055823
-0.183881 -0.230441 1.062725
0.195749 -0.452357 1.542467
0.072728 -0.123037 1.498157
-0.061730 -0.004814 0.983213
-0.061277 -0.346126 0.915943
0.081181 -0.145108 1.511214
-0.325372 -0.379197 1.145623
0.113666 0.289162 0.834183
0.096940 -0.296428 1.472733
-0.162246 0.069689 1.070388
0.018862 0.219993 0.858950
-0.169827 0.191845 1.343674
0.100912 -0.443723 1.451044
0.430844 -0.272184 1.382243
0.088670 -0.445986 1.280699
-0.233249 -0.090091 1.147197
-0.047172 0.046452 1.422173
0.154915 -0.187498 0.738135
-0.043427 0.104224 0.969437
0.176279 -0.448989 1.544269
-0.179136 -0.406012 1.257570
0.198899 -0.300258 1.580751
0.064211 0.024338 1.515881
-0.276728 0.211621 1.224517
-0.193166 -0.098599 1.293212
0.119467 -0.463169 1.292604
-0.268290 0.205276 1.240057
0.076446 -0.126215 1.513294
-0.050222 -0.120455 1.398119
0.194621 -0.004550 1.637681
0.192014 -0.457185 1.526801
-0.062475 -0.257574 1.374573
-0.144448 -0.217767 1.021627
-0.046585 -0.104869 1.398430
-0.032924 -0.439340 1.045871
0.083417 -0.127853 1.515099
0.145543 0.192079 1.611696
0.138692 -0.473391 0.899925
-0.263369 -0.088471 1.184026
-0.062466 0.090292 0.977734
-0.162435 0.036776 1.313965
-0.268366 -0.388632 1.136382
-0.078835 0.083001 0.987414
-0.172358 0.054106 1.297727
0.058057 0.024608 1.514191
0.058367 0.164318 1.556178
-0.096336 0.048918 1.007950
-0.276914 -0.072262 1.173074
-0.161382 -0.404696 1.239126
-0.272607 -0.088541 1.176766
-0.161056 0.036306 1.313267
0.074268 -0.438190 1.444388
-0.165892 -0.094211 1.281873
-0.044480 -0.281190 1.370578
-0.055195 -0.142854 1.396757
-0.056375 -0.357203 0.913910
0.019233 -0.431632 0.969160
-0.130496 -0.216482 0.994372
-0.234453 0.223675 1.268460
0.090629 -0.291176 1.495546
0.130028 -0.191837 0.771489
-0.270976 -0.241326 1.160019
0.225740 -0.290398 1.539706
0.273378 -0.468816 1.253576
-0.274498 -0.250814 1.145560
-0.275262 -0.081609 1.179058
0.102051 -0.193323 0.804190
0.086156 0.264579 0.846050
0.187890 -0.155877 1.603541
-0.032622 -0.114225 1.405320
0.278373 -0.133148 1.518179
0.610128 -0.069184 1.138089
0.633786 0.078861 1.143704
0.670186 0.141618 1.070514
0.499231 -0.252606 1.239626
0.202715 -0.145765 1.604378
0.059193 0.155528 1.549934
-0.162982 0.212998 1.326254
0.027743 -0.041671 0.912122
-0.121067 -0.415727 1.246772
-0.082481 0.056862 0.997133
-0.047535 0.047579 1.421075
0.193385 -0.466217 1.266857
-0.260811 -0.393490 1.135535
-0.030491 -0.116989 1.414570
-0.273876 -0.251167 1.151607
-0.142441 -0.260218 1.283671
0.059828 0.169459 1.546358
-0.049017 0.193986 1.438539
0.158510 -0.484014 1.103272
-0.185158 0.087825 1.108088
-0.192758 0.311029 0.716026
-0.111765 -0.022148 1.008442
0.491074 -0.053829 1.036528
0.069311 0.035387 1.522303
0.080486 -0.192764 0.812237
0.112932 0.282684 0.828322
-0.031468 -0.278901 1.385435
-0.041602 -0.108148 1.390294
0.082830 -0.134009 1.518112
-0.196390 -0.090465 1.115252
0.073904 -0.301893 1.476351
-0.177450 0.049732 1.299538
0.233032 0.086878 0.677928
-0.044021 -0.280358 1.367638
-0.101033 -0.020291 1.000056
0.170897 0.184262 1.613665
0.073899 -0.420995 1.466088
-0.029928 -0.116191 1.412200
-0.167615 -0.407319 1.064003
0.045343 -0.042383 0.853630
-0.277912 0.076431 1.193581
0.282507 -0.476293 1.170800
-0.013251 -0.436181 1.139006
0.196834 -0.454485 1.532549
0.281099 -0.343865 0.799560
0.182731 0.008792 1.626612
0.059860 0.021075 1.517159
0.193949 0.021775 1.632052
-0.039786 0.042104 1.415362
0.288936 0.045205 1.522920
-0.161392 -0.404972 1.240839
-0.160733 0.066660 1.323641
-0.150859 0.046976 1.327435
-0.148656 -0.252475 1.274495
0.194970 -0.453090 1.538491
0.430620 -0.256976 1.318932
0.194251 -0.153270 1.605538
0.197714 -0.141376 1.598310
0.306914 -0.091826 1.480627
-0.275061 0.063726 1.198011
0.085977 -0.283838 1.495624
-0.165822 -0.126495 1.393751
-0.031892 -0.437571 1.043161
0.524228 -0.253537 1.208829
-0.047247 0.025136 1.420467
0.627704 0.077397 1.146674
0.201026 -0.452229 1.528541
0.077654 -0.127764 1.495424
0.189185 -0.443558 1.540318
0.313353 -0.275780 1.445816
0.081486 -0.126837 1.518411
-0.274043 -0.233984 1.151199
-0.271764 0.070684 1.196506
-0.162903 0.071272 1.313266
-0.261107 -0.100376 1.184407
-0.032165 -0.065001 1.243404
-0.161573 -0.125309 1.393021
-0.053952 -0.270234 1.360342
0.214006 0.198930 1.611532
0.181795 0.013115 1.629393
0.186966 0.021029 1.631651
0.206133 -0.447533 1.539978
-0.030740 -0.112291 1.400939
0.198449 -0.453752 1.532843
0.228547 -0.351246 0.788864
0.519701 -0.310255 0.810704
-0.039994 0.047430 1.410523
0.184404 -0.138743 1.613129
-0.046842 0.025165 1.419968
-0.036272 0.042319 1.429629
-0.031883 -0.114473 1.406057
-0.036156 0.041890 1.431405
0.070907 0.041299 1.532794
-0.057027 0.028913 1.425093
-0.165769 0.194470 1.341159
-0.196228 0.245240 1.250851
-0.050296 0.184268 1.449157
0.264863 -0.341837 0.791655
-0.058196 0.039090 1.408504
0.288687 0.033591 1.534191
-0.015496 -0.445949 1.060310
0.555000 -0.104188 1.198630
0.080462 -0.435802 1.444135
-0.035951 -0.442804 1.040981
0.084570 -0.134461 1.517430
-0.169731 0.199092 1.332244
0.536705 -0.514198 0.539377
-0.163000 -0.402224 1.240028
-0.146385 -0.105023 1.300131
0.293583 0.174853 1.546728
0.525344 -0.250116 1.219379
0.515864 -0.214882 1.040635
0.189407 0.019841 1.631848
0.057691 0.026633 1.508197
0.619362 -0.224192 1.122383
0.287490 -0.432441 1.441091
-0.258978 -0.398092 1.140361
-0.042860 -0.107319 1.384613
-0.473807 0.122814 1.357620
0.291492 -0.290539 1.455918
0.201030 0.003444 1.625690
0.390755 -0.411033 1.339739
0.211550 -0.143592 1.586705
-0.144103 -0.261493 1.268917
0.278699 -0.123537 1.507875
0.402733 0.032459 1.403302
0.509238 0.232988 1.085908
0.274062 -0.196259 0.825510
0.548740 -0.100509 1.204260
-0.279795 -0.103926 1.340375
-0.160874 -0.094750 1.288120
-0.234977 0.235403 1.199436
0.291246 -0.480558 1.154006
-0.272572 -0.239872 1.129893
0.189745 -0.456026 1.530252
0.365875 -0.274836 1.371510
0.593869 0.083120 1.175246
0.290406 -0.480515 1.159226
0.268984 -0.132834 1.492679
0.524086 -0.252265 1.203230
-0.154775 -0.242276 1.270384
0.297434 -0.273294 1.472828
-0.151194 -0.276664 1.238499
-0.151949 -0.267390 1.266014
-0.045315 -0.104943 1.387746
-0.278595 -0.041266 1.186440
0.189964 0.021591 1.617799
0.193013 -0.143955 1.607825
0.186777 -0.453169 1.556984
0.605287 0.075834 1.180981
-0.158019 -0.402987 1.247357
0.304303 -0.132590 1.491282
0.048930 -0.330511 0.798458
0.008550 -0.051337 0.855781
0.053453 -0.337212 0.790442
0.280159 -0.429781 1.041976
0.261104 -0.025014 0.820316
-0.213464 0.212669 1.295905
0.157948 -0.299484 1.578914
0.384443 -0.352914 0.891429
0.139987 -0.188039 0.713897
0.319903 -0.467078 1.207461
0.261057 -0.039897 0.824781
0.341297 -0.206687 0.820998
0.399643 -0.410015 1.334240
0.146469 -0.021114 0.728577
0.627833 0.175483 1.318598
0.024144 -0.046458 0.870481
-0.166001 -0.083434 1.080058
0.166979 0.144613 0.762055
0.068722 -0.410806 0.987218
0.266242 -0.266821 1.467538
0.372813 0.117814 0.954079
-0.062883 0.090567 0.973854
0.100261 -0.440324 1.049860
0.483672 -0.222248 1.024601
0.481259 -0.227170 1.022319
-0.177043 0.082166 1.110448
0.152628 -0.324016 0.694869
0.510799 0.237568 1.091746
0.383089 0.103622 0.951220
0.493189 -0.057819 1.051643
0.388007 -0.346668 0.895194
0.222552 -0.230920 1.072134
0.511115 -0.068149 1.062743
0.612966 -0.224141 1.121434
0.323646 0.185230 1.488935
0.609457 0.072416 1.190368
0.105095 -0.438088 0.986694
0.253409 -0.182826 0.794767
0.274342 -0.287671 1.469793
0.279073 0.024693 1.511503
0.289393 -0.131862 1.477437
0.387734 0.103950 0.968478
0.383444 -0.350464 0.895505
0.267644 0.107380 0.843280
0.285222 0.125944 0.864503
0.385322 -0.038183 0.948255
0.151259 -0.333893 0.712719
0.386947 -0.030298 0.943733
0.010379 -0.457916 1.069695
0.377901 0.095212 0.959097
0.162400 -0.084220 1.618287
0.151938 -0.173887 0.707981
0.394782 -0.209191 0.932027
0.158483 0.334523 0.804910
0.502080 0.302464 1.126703
0.509097 0.104772 1.085416
0.515117 0.065741 1.277209
0.095938 0.071114 0.743231
0.081189 0.075873 0.746634
-0.097012 0.050987 0.997499
0.496617 -0.068090 1.052158
0.128665 0.269842 0.740498
0.325846 -0.132717 1.448194
0.266342 -0.049214 0.820750
-0.174034 0.099151 1.107776
-0.120849 0.052137 1.020187
0.383454 0.047215 1.405587
0.163975 0.306101 0.823642
0.370525 -0.355370 0.896190
0.383719 -0.039978 0.949978
0.550638 0.062336 1.256966
0.039796 -0.193955 0.837614
-0.142483 -0.025368 1.038628
0.001842 0.262322 0.929285
-0.135308 0.268592 1.099900
-0.161102 -0.074254 1.065464
0.032338 0.263746 0.866487
-0.078488 0.087816 0.991060
0.245081 -0.040869 0.829809
0.149460 0.138112 0.762085
-0.091740 0.244163 1.027927
0.609728 -0.084700 1.161758
0.514535 -0.214037 1.041674
0.156423 0.332694 0.808549
0.162160 -0.307713 1.579403
0.514068 0.104632 1.082929
0.169828 0.303032 0.816955
0.393772 0.041573 1.397322
0.505482 -0.208707 1.034556
0.374273 0.253004 0.969034
0.177182 -0.447558 1.547009
0.511026 -0.383559 1.224621
0.517394 -0.359541 1.034767
0.247079 -0.341916 0.783237
0.394721 0.100022 0.967466
0.378004 -0.425161 1.299354
0.511905 -0.067002 1.061982
-0.162333 0.083897 1.088657
0.387593 -0.342732 0.894627
0.515497 -0.249513 1.228118
0.519084 0.106759 1.081675
0.269396 -0.338025 0.784396
0.269137 -0.368283 0.869991
0.136645 0.031591 0.732133
0.501164 -0.196692 1.029833
0.509238 -0.076433 1.045502
0.486730 0.074770 1.030897
0.408454 -0.262787 1.340972
0.151966 -0.319344 0.690814
0.213022 -0.415536 1.012710
0.529113 -0.249898 1.219758
0.167718 -0.083813 1.617027
0.501301 -0.206264 1.036949
0.260641 -0.337648 0.785481
0.503035 0.243266 1.092732
0.373553 -0.209429 0.900609
0.398555 0.255253 0.985748
0.380538 -0.367447 0.931689
0.406877 -0.406124 1.328329
-0.044980 0.103031 0.973989
0.157192 0.274243 0.770065
0.147097 -0.416400 0.987081
0.252487 -0.287518 1.480997
0.139469 0.142859 0.747929
0.275732 -0.195901 0.823858
0.377457 -0.038869 0.948548
-0.163586 0.095516 1.095567
0.198512 -0.418186 0.985878
0.088731 -0.445862 1.008750
0.512781 0.104025 1.085138
0.604318 0.049680 1.194294
0.143448 0.286874 0.772429
-0.159480 -0.064815 1.069193
-0.099005 0.073489 1.014798
0.110577 0.297183 0.824319
0.109109 0.135494 0.809752
0.058622 0.132707 0.843166
-0.063229 0.090704 0.973901
0.261603 0.132470 0.863654
0.509338 0.104518 1.084844
0.108459 0.090704 0.737282
0.109410 0.102352 0.741030
0.182911 0.142712 1.631363
0.280210 -0.280054 1.464362
0.479829 0.091621 1.055048
0.393816 -0.045082 0.950534
0.386130 -0.354515 0.903304
0.311740 -0.270507 1.429519
0.502227 -0.394275 1.228799
0.590625 0.231108 1.162953
0.157262 0.292282 0.785149
0.606900 -0.231075 1.144997
0.605490 -0.079353 1.149579
0.516567 -0.214782 1.040388
0.494465 -0.045847 1.036686
0.268143 0.168619 1.546884
0.144888 -0.183679 0.704089
0.143972 -0.017795 0.735547
0.493470 -0.367748 1.000639
0.361719 -0.269585 1.365683
0.499443 -0.389835 1.228704
0.267321 -0.181290 0.809406
0.382584 -0.354778 0.891726
-0.075774 -0.211754 0.958893
-0.052971 0.116090 0.967492
-0.098474 0.046110 1.000173
0.464010 -0.108665 1.299317
0.283748 -0.332291 0.780679
0.166552 -0.078044 1.622084
0.373515 -0.209882 0.910252
0.052171 -0.173773 0.823659
-0.067050 0.236383 0.986842
0.269809 -0.428793 1.460433
0.379182 0.256020 0.974018
0.168846 0.272847 0.773591
0.509182 -0.365736 1.006546
0.371502 -0.355433 0.897436
0.174466 0.201218 1.607271
0.064472 -0.186702 0.803778
0.311630 -0.344674 0.824612
0.279081 0.127444 0.865315
0.353887 -0.464724 1.243937
0.508378 0.236603 1.088244
0.141305 -0.021646 0.729866
0.304196 -0.205710 0.806666
0.409515 0.037466 1.384501
0.535136 -0.094956 1.245271
0.394108 -0.110890 1.373709
0.280319 -0.201679 0.822380
0.537235 0.268832 1.230575
0.168271 0.303137 0.827295
0.153693 -0.080191 1.626616
0.161892 -0.431721 1.028141
0.233189 -0.188218 0.780780
0.425981 -0.262006 1.334009
0.503853 0.241171 1.093245
0.033354 -0.191688 0.838482
0.604446 -0.382183 1.119126
0.469618 0.106691 1.770066
0.505728 0.119988 1.076250
0.144810 -0.184008 0.703516
0.499944 -0.078155 1.046275
0.272183 -0.403332 0.981458
0.170005 -0.449724 1.526933
-0.066807 -0.060243 0.970944
0.383843 -0.349270 0.877079
0.498134 0.244491 1.098886
0.117820 -0.436268 1.041857
0.230376 -0.387941 0.934420
0.270834 -0.291673 1.472322
0.552657 0.247040 1.167395
0.156341 0.122966 0.732097
0.387941 0.088679 0.959848
0.158205 0.276075 0.770077
0.260345 -0.341761 0.792698
-0.273682 0.209369 1.216175
-0.060114 -0.062746 0.978673
0.356519 0.232928 1.437017
0.494066 0.080843 1.063838
0.192458 -0.169217 0.736201
0.263563 -0.281998 1.473697
0.388273 -0.208993 0.933024
0.266799 -0.042402 0.830715
0.396979 -0.044255 0.951529
0.539806 0.265655 1.231359
0.264383 -0.019777 0.825454
0.395742 -0.049574 0.945931
0.190752 0.138325 1.627457
0.387883 0.087427 0.958385
0.491172 0.248512 1.092329
-0.071536 -0.210484 0.959541
-0.120450 0.046478 1.025802
-0.075637 0.092854 0.986190
0.164196 0.307741 0.835473
0.555914 -0.078458 1.125885
-0.092291 -0.013526 0.984465
0.042297 0.266944 0.874473
-0.060086 0.323228 1.052163
-0.137177 -0.020894 1.044318
0.496055 -0.206725 1.040550
-0.143952 0.044950 1.054232
0.032050 -0.042967 0.843975
0.066791 0.339362 0.898145
0.060238 -0.184892 0.795793
-0.182743 -0.234620 1.085549
0.494714 0.072287 1.058678
0.257672 -0.034190 0.820329
0.268248 -0.358736 1.470631
0.267297 -0.374942 1.469385
0.608225 0.079358 1.196873
0.159016 0.280684 0.776651
0.473432 -0.110809 1.294003
0.139609 -0.341009 0.726696
0.260974 -0.025853 0.820087
0.137832 0.146581 1.666635
0.481546 0.043033 1.312342
0.374360 -0.029100 0.947801
0.370402 -0.137271 1.403534
0.620119 0.218871 1.197832
0.196696 -0.298066 1.544518
0.495006 0.069343 1.290954
0.255676 -0.454367 1.138136
0.283270 0.004975 1.507271
0.274117 -0.368733 0.885692
0.143562 0.074307 0.737630
0.131320 -0.397010 0.910669
0.364677 -0.345509 0.854693
0.496203 -0.390315 1.229778
0.592310 -0.229458 1.136420
0.573453 0.244135 1.226205
-0.129007 0.043109 1.030844
0.036972 -0.187822 0.829884
0.175676 -0.329414 0.704938
-0.072329 0.100408 0.986705
0.060770 0.122696 0.840549
-0.144304 0.046280 1.058967
-0.056899 -0.207753 0.936993
-0.130943 -0.020577 1.034082
0.279516 -0.423980 1.032373
0.149219 0.297182 0.787163
0.035810 0.265118 0.865025
0.468930 -0.261074 1.278825
0.604505 0.220983 1.193320
-0.072963 -0.210411 0.945677
0.057133 0.127998 0.836845
0.140108 0.138795 0.750220
-0.056063 -0.042916 0.960060
0.152409 -0.013375 0.726648
-0.159136 -0.075510 1.059424
0.566411 -0.097168 1.215651
0.061461 -0.035802 0.826553
0.050567 0.135880 0.861030
0.041738 -0.028717 0.843779
-0.194780 0.079120 1.128913
0.288817 -0.453277 1.152409
0.613007 0.137827 1.190029
-0.124203 -0.012334 1.031301
0.153081 0.056276 0.735156
0.261296 -0.180958 0.803675
0.035064 -0.185323 0.827285
0.147427 0.281411 0.753742
0.607094 -0.230224 1.133843
0.579777 0.242348 1.169608
0.604074 -0.382993 1.121135
0.531370 0.241820 1.109244
-0.330526 0.319359 1.383997
0.577451 0.246119 1.192006
0.372602 -0.442363 1.171919
0.312081 -0.344687 0.822760
0.395263 -0.330793 0.795967
0.246218 -0.458744 1.141629
0.260961 0.275494 0.877264
-0.161344 0.082190 1.082189
0.495880 -0.068004 1.057067
0.491224 -0.053664 1.048351
0.800340 0.164326 0.983897
0.487041 -0.053507 1.033007
0.397377 0.095805 0.966398
0.503686 -0.080436 1.045104
0.265985 -0.208308 0.811086
0.393310 0.087702 0.959119
0.099394 -0.400439 0.910691
0.333729 -0.456749 0.999258
-0.170741 0.070411 1.088498
0.562012 0.262029 1.186365
0.057468 0.132348 0.843225
-0.076453 0.089498 0.982751
0.254387 -0.184950 0.793567
0.381154 0.125181 0.974052
0.511922 -0.067893 1.056380
-0.089102 -0.015085 0.983063
-0.063001 -0.054939 0.968435
0.151120 -0.170667 0.707256
0.048974 0.261330 0.921065
-0.049570 0.096668 0.950286
0.307371 -0.422433 0.948776
0.294360 -0.045269 0.852331
-0.117076 0.034810 1.019369
-0.146879 0.046959 1.050704
0.240864 -0.445183 1.086988
-0.090817 0.033154 0.978163
0.607597 -0.073778 1.159262
0.158248 -0.457109 1.113361
0.021932 0.262246 0.902617
0.266986 -0.351424 0.825252
0.593530 -0.072854 1.156398
0.489302 -0.041597 1.064679
0.133655 -0.033392 0.732608
0.494824 -0.046634 1.039305
0.155145 -0.327823 0.696377
-0.106231 0.046311 1.007402
-0.143371 -0.024136 1.050888
0.054850 0.349295 0.924076
0.091478 -0.452885 1.034424
0.382130 -0.447113 1.198872
0.608961 0.091810 1.191693
-0.040478 -0.053780 0.926089
-0.031312 -0.373617 0.937459
-0.029993 -0.463722 1.216364
-0.038551 -0.053502 0.955844
0.060254 -0.184621 0.787345
0.617982 0.145950 1.217734
-0.295415 0.065773 1.219599
0.366047 0.118509 0.959197
0.360414 -0.407175 1.021922
0.385136 -0.219679 0.912854
0.378062 -0.451295 1.205035
0.138831 -0.014723 0.740811
0.564429 0.091493 1.158982
0.383139 -0.285322 0.895186
0.132942 -0.033044 0.696534
0.495375 -0.045820 1.040172
0.263437 0.277501 0.881442
0.609981 -0.223308 1.141170
-0.057159 -0.051616 0.959152
-0.067571 0.091888 0.978963
0.124760 0.279108 0.786443
0.138835 0.303351 0.802012
0.133550 -0.027831 0.739255
0.063924 -0.321031 0.774307
0.126977 0.280964 0.783378
-0.058048 -0.353810 0.907854
-0.261951 -0.243601 1.167554
0.160114 -0.327052 0.697935
0.024989 -0.032494 0.868310
0.149155 0.123530 0.731782
0.105278 -0.440863 1.003076
-0.279971 0.001536 1.202066
0.050286 -0.338376 0.784251
0.272712 -0.341688 0.790400
0.089776 -0.176568 0.738329
0.129367 0.122949 0.751463
0.257672 -0.194414 0.798233
0.144033 -0.330408 0.704596
0.272225 -0.383706 0.925524
0.166492 -0.329579 0.700283
0.147178 -0.328316 0.699996
0.071087 0.118991 0.821961
-0.045147 -0.373543 0.933130
0.614879 0.144760 1.255215
0.155978 0.113666 0.706724
-0.036553 -0.022447 0.896838
0.777553 0.347494 1.216160
0.387035 0.111240 1.086901
-0.018745 0.087998 0.876536
-0.157112 -0.073141 1.066381
0.239450 -0.236380 1.109247
0.173638 -0.028359 0.732487
-0.052424 -0.223012 0.937490
-0.038174 -0.367992 0.921479
-0.141455 -0.022959 1.050358
-0.098676 -0.018009 0.995154
0.274820 -0.342831 0.793158
0.828717 0.276267 1.010203
0.076223 -0.398678 0.973389
-0.217009 0.247002 1.234955
-0.051476 0.316564 1.029005
0.051749 0.125184 0.854690
0.001807 0.100127 0.909465
0.821217 0.176624 1.057639
0.151819 -0.336988 0.708916
0.157314 0.289716 0.758230
-0.166212 0.077006 1.098618
-0.082526 -0.016785 0.965820
-0.055433 0.228892 0.972566
0.021615 -0.335124 0.826661
-0.057993 -0.069019 0.952990
0.161402 0.289598 0.770458
-0.057819 0.115422 0.975363
0.370089 -0.200638 0.928775
-0.255748 -0.400146 1.147186
0.403448 0.087735 0.972549
-0.060626 0.253059 0.984549
-0.163888 -0.228834 1.058336
-0.146586 0.046046 1.052732
-0.054884 -0.367958 0.930116
-0.064400 0.249321 0.997554
-0.152519 -0.224458 1.037539
0.814791 0.172234 1.026424
-0.017479 0.270603 0.989525
-0.074900 -0.209072 0.937982
-0.175311 0.220648 1.112712
0.252667 0.131546 0.834303
-0.163695 -0.250115 1.046774
-0.165335 -0.084803 1.073964
0.163337 -0.021089 0.744784
-0.138439 0.060316 1.044904
0.274613 -0.382189 0.915609
0.108878 0.317284 0.832807
0.031834 -0.191518 0.837977
0.517973 -0.213966 1.046078
-0.319591 0.077199 1.251448
0.955946 0.602585 1.902326
0.382423 0.102797 0.960882
0.076069 -0.390299 0.943326
0.149463 0.138125 0.762949
0.401756 0.083619 0.969088
-0.247132 -0.402995 1.133893
0.159537 -0.319444 0.685811
-0.058264 -0.069250 0.952896
-0.108256 0.045411 1.004967
-0.257838 -0.256442 0.674656
0.146596 -0.169835 0.704033
0.030597 -0.041956 0.829726
0.177049 -0.327807 0.699155
0.600592 0.209292 1.177083
-0.165750 0.072456 1.068447
0.031161 -0.473615 1.196909
-0.058276 -0.284668 0.657955
0.064860 -0.185891 0.802714
-0.058892 -0.203431 0.925863
-0.166468 0.240186 1.114731
0.497530 0.103693 1.082631
-0.089451 -0.014891 0.979381
-0.052524 0.113375 0.961502
0.044602 0.268279 0.869724
-0.275943 0.069648 1.208128
0.118826 -0.454598 1.090153
0.275223 0.128153 0.873682
0.276916 -0.193629 0.825137
0.172949 0.128489 0.763783
0.079158 -0.189684 0.824509
0.366827 -0.197309 0.901164
-0.056560 -0.055739 0.951077
0.047422 -0.194711 0.826823
0.276751 0.116503 0.863827
0.151602 0.137796 0.746558
-0.265599 0.065963 1.198655
-0.110873 0.044874 1.011466
0.060248 -0.413103 0.982528
0.256823 -0.031099 0.818260
-0.162394 -0.366173 1.032573
0.046527 -0.339984 0.798141
0.282520 -0.199133 0.799021
-0.112186 0.265310 1.063674
-0.061026 0.089147 0.968333
-0.081429 0.338561 1.098949
0.163215 -0.173095 0.663047
-0.251686 0.272699 1.231396
-0.054577 0.100156 0.965189
0.630643 0.179483 1.353067
0.494786 0.071770 1.077447
-0.263250 0.224348 1.232077
-0.167594 -0.055216 1.060959
-0.133791 0.256651 1.141897
0.903963 0.296779 1.063832
-0.150247 -0.223821 1.041350
-0.166435 -0.367361 0.983787
0.616008 -0.035430 1.204268
0.261137 0.134771 0.843378
0.488794 -0.350060 0.988983
0.408489 0.078956 0.975667
0.486119 -0.221614 1.009578
0.264517 -0.033690 0.826168
0.637288 0.175406 1.367996
-0.047002 0.312016 1.019584
-0.086444 0.333241 1.094903
-0.281535 0.043600 1.196595
-0.162880 0.083733 1.084120
-0.187381 0.084206 1.114179
-0.170184 0.076301 1.096540
0.491927 -0.206630 1.003253
-0.072734 0.247349 0.970053
0.062660 0.120726 0.851132
-0.082588 -0.062852 1.016456
-0.274409 0.055416 1.210531
0.481563 -0.349688 0.984724
0.018750 0.268838 0.912388
0.395746 0.091491 0.961342
0.278637 -0.335369 0.792421
0.041273 0.259563 0.868636
0.117988 0.139031 0.804985
0.522579 -0.002703 1.070731
0.048549 0.273229 0.884014
0.164621 0.285036 0.778662
-0.050061 -0.047989 0.933889
-0.171441 0.100510 1.088411
-0.047081 -0.359555 0.902942
0.121164 -0.432574 1.060090
0.033183 -0.194430 0.854586
0.797424 0.252673 0.957365
0.513440 -0.073633 1.041473
-0.273136 0.211509 1.226893
0.270194 -0.195449 0.811700
0.178231 -0.170318 0.716566
-0.146995 -0.387482 1.033723
-0.218450 0.247245 1.237074
0.538867 -0.237595 1.085463
0.180285 -0.028579 0.739292
0.389753 0.106980 0.974948
0.076316 -0.392709 0.954612
0.289354 -0.194677 0.814473
0.728305 0.271189 0.888835
0.295288 -0.195926 0.826450
-0.064980 0.241813 0.993037
0.622884 0.075864 1.210560
-0.158132 -0.385160 1.034499
0.283502 -0.329200 0.793392
0.034669 0.103675 0.858712
0.374035 -0.207561 0.914195
0.261525 -0.180990 0.801623
-0.056624 -0.340607 0.841831
0.269696 -0.178631 0.808750
-0.160545 -0.382570 1.029902
0.506025 -0.075031 1.033585
0.559144 0.075375 1.122995
0.578991 0.236623 1.178977
0.195268 -0.650562 1.672809
0.483227 -0.343062 0.979689
-0.045922 -0.371163 0.928703
0.018259 -0.384875 0.943947
0.180456 -0.031448 0.741642
0.185639 -0.180803 0.723649
-0.166223 -0.054596 1.069858
0.257176 0.124055 0.844427
0.231646 -0.175715 0.761370
0.172741 -0.035913 0.725010
-0.094969 0.055835 0.996565
0.408149 -0.210198 0.935679
0.262382 0.134712 0.851261
0.256044 -0.189142 0.796208
-0.280540 -0.000981 1.178882
0.026985 0.110671 0.859137
0.047071 0.132459 0.854340
0.055320 -0.342050 0.788457
-0.255444 -0.251637 1.177399
0.041295 -0.194437 0.829933
0.438176 -0.388601 1.837563
0.288274 -0.330497 0.803978
0.144967 0.133417 0.743092
-0.156061 -0.397866 1.064408
-0.263939 -0.244105 1.173626
-0.104809 0.047879 1.005865
-0.222382 0.248161 1.242575
0.051219 -0.049546 0.839455
-0.258518 0.226042 1.262208
0.046592 0.102046 0.872671
0.186195 -0.026496 0.755917
0.264861 -0.050235 0.823321
-0.055961 -0.371296 0.937524
0.603591 0.211428 1.182781
0.253346 -0.184376 0.798942
0.142970 0.284176 0.762579
-0.119331 0.021474 1.019582
-0.056599 -0.203257 0.934561
-0.278782 -0.270517 1.189008
0.038633 0.114680 0.871148
-0.183124 -0.229927 1.083015
0.598140 -0.074963 1.157313
0.044659 -0.025070 0.846289
-0.276111 0.060450 1.202765
0.079672 -0.389509 0.942495
-0.165933 -0.086060 1.069682
-0.153294 0.288998 1.125672
-0.047316 -0.368432 0.921208
-0.048324 -0.202818 0.929400
0.627996 -0.001756 1.180098
0.601434 -0.375137 1.118583
0.516816 -0.074930 1.063586
-0.039304 -0.367861 0.923824
-0.165891 -0.218106 0.989070
0.069007 -0.186930 0.807495
-0.052724 -0.370678 0.935804
0.041186 -0.025572 0.844686
0.264450 -0.177765 0.820925
0.418112 0.106031 1.012805
0.163499 0.287988 0.778485
0.476654 0.087186 1.046175
0.256439 0.124042 0.838256
0.176823 -0.170186 0.714905
0.248004 0.126088 0.826740
0.348942 -0.461860 1.025281
0.597924 -0.379966 1.107907
-0.163042 -0.217332 1.050011
0.061870 0.317484 0.832141
-0.168335 0.070205 1.090247
0.400313 0.248551 1.005105
0.381701 0.120567 0.972306
-0.179089 -0.082520 1.077368
0.652861 0.262551 0.813452
-0.165844 -0.056519 1.066996
-0.053316 -0.361497 0.903145
-0.059890 -0.067386 0.950681
0.406597 0.244075 1.017717
0.339002 -0.204315 0.859632
0.038486 0.094169 0.857785
-0.155818 -0.390602 1.051220
1.655154 0.013378 2.185694
1.647468 0.020730 2.182914
0.040109 -0.040708 0.845313
-0.261649 0.219583 1.294625
0.040444 0.113690 0.876003
0.387659 0.239344 0.984096
0.180495 -0.025451 0.748106
0.071655 -0.355919 0.821818
-0.170762 0.063283 1.078721
0.531373 -0.231036 1.071668
0.068439 -0.423470 1.015250
0.183418 -0.179448 0.714512
-0.159899 -0.065044 1.069640
0.611198 0.242984 0.689617
0.502218 -0.067570 1.058938
-0.268111 -0.260275 1.174053
0.258849 0.122656 0.838404
0.070912 -0.421548 1.004604
0.266874 0.121849 0.845780
0.389910 -0.196052 0.908838
0.422061 -0.217457 0.950863
-0.265801 -0.231798 0.603246
-0.056565 -0.195996 0.932994
-0.041069 -0.366868 0.922471
-0.164343 -0.395044 1.053282
0.017470 -0.068103 1.126842
-0.078034 -0.352239 0.891507
-0.126110 -0.405429 1.063800
-0.048688 -0.049665 0.949219
-0.175008 0.227165 1.103318
-0.128561 -0.372472 0.967007
-0.163220 -0.382121 1.028524
-0.070970 -0.062777 0.940558
0.018530 -0.186124 0.802067
-0.080495 0.091946 0.973669
0.725878 0.253956 0.933649
0.045001 -0.336987 0.780060
0.045185 -0.340289 0.794902
0.055927 -0.342950 0.790766
0.178066 -0.034911 0.735728
0.030321 0.111418 0.862194
-0.272429 0.213665 1.222982
-0.057670 -0.044638 0.958656
0.003169 -0.039090 0.798308
-0.266214 0.216528 1.275286
-0.152109 -0.394585 1.045523
-0.098443 0.051568 1.008621
-0.280390 0.016031 1.196133
-0.266360 -0.243266 1.163319
-0.269794 -0.256785 1.166111
-0.069693 -0.368842 0.928377
-0.081202 0.243462 0.967683
0.013036 0.256194 0.851805
0.161209 -0.321310 0.693214
0.055740 -0.177036 0.832111
-0.056755 -0.044341 0.958737
1.635449 0.011613 2.175289
-0.134392 -0.399850 1.068280
-0.206235 -0.437352 1.213969
-0.046070 -0.370499 0.928065
-0.258130 -0.252185 1.177081
-0.222494 -0.312328 0.823229
-0.181707 -0.362120 0.971490
0.051441 0.097833 0.871547
-0.171122 -0.209244 1.028944
-0.288921 -0.132544 0.299996
-0.071189 0.368453 1.321034
-0.224827 -0.370045 1.011980
0.062018 -0.041916 0.881724
0.158705 -0.028062 0.731336
-0.196694 -0.080386 0.960247
0.048165 -0.194207 0.838844
0.050455 -0.330721 0.794190
-0.276464 0.014219 1.208283
0.163778 -0.326129 0.693568
-0.148275 0.079858 1.076890
0.050197 -0.205667 0.805457
-0.265882 -0.303035 1.170673
-0.001227 0.248071 0.828317
0.024801 0.108728 0.867296
-0.055028 0.257049 0.987506
0.062556 -0.211633 0.824776
-0.094724 0.055763 1.000300
-0.075722 0.091340 0.981051
-0.064178 0.084534 0.963742
0.051197 -0.051635 0.840573
-0.263326 -0.092068 1.199948
-0.263433 -0.091463 1.188190
0.095345 -0.623031 1.656246
-0.043844 -0.204552 0.925918
0.042707 0.096683 0.861867
-0.241688 -0.280746 0.747030
-0.302225 -0.189754 0.485190
-0.174581 -0.378373 1.011441
-0.373766 -0.121850 0.309537
0.035465 -0.047955 0.836281
-0.047809 -0.053967 0.955445
-0.266080 -0.091219 1.191534
-0.241639 -0.412379 1.154183
-0.090465 -0.015024 0.985333
0.173881 -0.188432 0.719789
0.381811 0.124088 0.959617
0.487389 0.078401 1.056607
0.264837 0.131153 0.852207
0.589050 0.255267 1.229048
-0.170209 0.076324 1.072324
0.500107 -0.360993 1.006024
0.566795 0.243583 1.175236
-0.059426 -0.066822 0.954466
-0.163999 -0.076400 1.066736
0.316045 -0.464521 1.195122
-0.152089 -0.224742 1.040568
-0.165803 -0.057148 1.072553
0.376917 -0.054354 0.935838
-0.076016 0.222441 0.963904
-0.151881 -0.228185 1.079503
0.481958 -0.056325 1.039679
0.039885 0.253155 0.870467
0.175313 -0.453801 1.037198
0.502697 -0.356050 1.010722
-0.042735 -0.205400 0.925062
-0.041963 -0.053653 0.952440
0.397261 0.096987 0.964843
-0.067017 -0.060181 0.968880
0.477910 -0.222670 1.008399
