-0.213757 -0.169798 1.323740
-0.058748 -0.360914 1.607034
0.390114 0.043017 1.227941
0.380138 0.095451 1.305560
0.186608 0.124150 1.158641
0.379700 0.186241 1.315809
-0.462256 0.251795 1.475161
0.113215 0.205658 1.173813
-0.188941 -0.288148 1.424763
0.566070 0.810921 1.380253
0.533972 0.277130 1.419764
0.052935 -0.155058 1.096459
-0.053400 0.066906 1.173273
0.425472 -0.195565 1.472451
-0.075657 -0.167645 0.968467
-0.044077 -0.100786 1.283285
-0.034771 0.172462 1.222494
0.222361 0.103036 1.168213
0.320865 0.061270 1.229995
0.043394 0.173850 1.190204
0.164776 -0.390051 1.624264
-0.086191 -0.026332 1.149346
-0.165015 -0.277281 1.456775
-0.046679 -0.008354 1.287081
0.387535 -0.257769 1.424779
0.378513 0.069978 1.261091
0.080100 -0.147777 1.135739
-0.618171 0.263490 1.352192
-0.301618 -0.261865 3.049773
0.307806 0.096402 1.230791
0.008841 -0.065218 1.222151
-0.031246 0.142305 1.194399
0.143392 0.074645 1.119865
-0.046816 0.001317 1.137318
0.080615 -0.275423 3.267378
-0.051610 0.005433 1.157146
-0.239036 -0.166343 1.441417
0.433148 -0.102105 1.439999
0.425156 -0.121708 1.344447
-0.303485 -0.249053 3.120928
0.039050 -0.379979 1.655985
0.389649 -0.256700 1.426497
0.212883 0.091108 1.157405
0.443702 -0.157690 1.459931
0.155437 0.132822 1.147140
0.311722 -0.339618 1.579674
0.278431 0.059448 1.194818
0.224572 0.056116 1.147625
-0.186171 -0.099975 1.285316
0.391323 -0.263316 1.412001
0.150530 0.125514 1.125059
-0.141223 -0.355946 1.486565
0.149012 0.113811 1.142189
0.148390 0.167096 1.141821
-0.131349 -0.370445 1.444911
0.443948 -0.111299 1.636003
0.106824 0.114625 1.162257
0.032075 0.161784 1.176442
0.109731 -0.243974 1.130449
0.242593 0.065379 1.176816
0.203921 0.078956 1.146413
-0.178921 -0.295254 1.405266
0.373686 0.190213 1.252575
0.443379 -0.142720 1.511831
0.168942 0.204980 1.147844
0.168886 0.208399 1.153643
0.104109 -0.241186 1.153555
0.384868 0.017562 1.235147
0.282040 0.143604 1.225107
-0.051694 0.006624 1.160576
0.252141 0.087159 1.191335
0.341169 0.045428 1.222531
-0.589472 0.243254 1.312861
0.288623 0.057816 1.194732
0.439705 -0.124634 1.485165
0.022241 0.010397 1.143858
0.438295 -0.125090 1.479070
-0.048420 0.147909 1.182330
0.312489 0.070505 1.214812
0.354205 -0.260829 2.148788
0.436007 0.158142 1.873047
0.443223 -0.110741 1.548739
-0.197722 -0.210388 1.439864
0.288718 0.054787 1.185533
0.435414 0.075788 1.567744
0.379666 0.042507 1.283413
-0.206498 -0.203633 1.459536
0.431393 0.102467 1.693966
0.365420 0.015497 1.149971
0.326516 0.082990 1.232083
0.045655 -0.271003 3.207065
0.152188 0.174077 1.164064
-0.167692 -0.011438 1.326291
-0.322249 -0.130242 1.662010
-0.338391 0.032074 1.725878
-0.011882 0.219878 1.127633
0.347539 -0.288191 1.955961
0.280024 -0.235295 3.053994
0.430527 0.020440 1.699177
0.357511 -0.323540 1.619117
-0.047263 0.305597 1.263452
0.393426 -0.084162 1.232484
0.397964 -0.058395 1.323114
0.335544 0.072590 1.238036
0.122668 -0.251703 1.106382
0.300993 0.069806 1.215761
0.093900 -0.117618 1.096668
0.386753 -0.005144 1.262508
0.441683 -0.150698 1.474262
0.376557 -0.048623 1.228819
0.098062 -0.090784 1.189533
-0.382436 -0.034095 1.798487
0.275157 0.078782 1.196673
-0.059923 0.021289 1.209347
0.455576 0.103128 1.803991
0.455517 0.109376 1.830156
0.019984 0.143863 1.171138
-0.028313 0.019091 1.110470
0.198027 0.209431 1.185116
0.078599 0.210719 1.175760
-0.006666 0.146809 1.207372
-0.048299 0.144023 1.204932
0.539760 0.279633 1.425945
0.019902 0.029329 1.098239
-0.142565 0.177895 1.302889
-0.077845 -0.357866 1.430895
0.119305 0.224458 1.193384
0.195157 0.081400 1.150527
0.174126 0.122961 1.155966
0.118669 0.210802 1.164608
0.154343 0.082857 1.160808
0.368402 0.043627 1.269586
0.364939 -0.195934 1.319265
-0.014801 0.125066 1.158990
-0.092473 0.102772 1.194800
0.140473 0.076707 1.131387
0.024294 0.030617 1.144506
0.035634 0.195013 1.154281
0.060813 0.151450 1.186611
0.374851 0.116650 1.307531
0.056604 0.080255 1.149758
0.153353 0.126644 1.159661
0.002886 0.018200 1.138538
0.084999 -0.350343 1.420625
0.375685 0.182866 1.312135
0.073507 0.148684 1.163640
0.211204 0.109472 1.158968
0.173681 0.084090 1.141250
0.023428 0.007644 1.137520
0.380930 0.027161 1.251917
-0.091270 0.134641 1.208258
0.168659 0.217273 1.167417
-0.051772 0.024043 1.161173
-0.050779 0.003877 1.158601
0.168960 0.215137 1.167727
0.291954 0.077540 1.213790
0.142493 0.142263 1.150194
0.141734 0.075980 1.130315
0.146031 0.175421 1.158094
-0.093378 0.193433 1.229904
-0.026324 0.077134 1.166816
0.021619 0.026930 1.138487
0.280415 0.136879 1.216172
0.059350 0.084766 1.147837
-0.056636 0.324642 1.276242
-0.062465 0.313790 1.329565
0.173464 -0.324998 1.331667
-0.052637 0.022482 1.154346
0.021170 0.008031 1.136736
-0.096882 0.189203 1.232795
0.294791 -0.141436 1.171407
0.113360 0.207046 1.168420
-0.025772 0.077330 1.169894
0.214794 0.199058 1.168425
-0.011089 0.022464 1.176094
0.108460 0.220472 1.209721
0.382935 -0.022731 1.234305
0.118704 0.198512 1.168070
0.161682 0.075574 1.133469
-0.127217 0.120079 1.241886
0.300767 0.047096 1.209035
0.245934 0.089250 1.185275
-0.017289 0.015434 1.147776
0.293724 0.056921 1.206103
0.315464 0.150436 1.262263
0.166820 0.211888 1.152887
-0.146988 -0.321274 1.293127
0.158206 0.110362 1.148221
0.081347 0.188286 1.167936
-0.091060 0.015645 1.167325
0.047472 0.113224 1.158818
-0.089433 0.105498 1.184036
-0.039616 0.223639 1.216719
0.170516 -0.090808 1.156159
0.368769 -0.166365 1.298058
-0.158714 -0.322570 1.354822
0.012376 0.161561 1.157677
0.340394 0.077501 1.248814
-0.028756 0.140931 1.184090
0.252613 0.088435 1.172116
-0.011049 0.085891 1.141995
-0.123056 0.115319 1.185693
-0.191598 0.083984 1.355055
-0.132122 -0.020608 1.242870
0.362885 -0.183500 1.313475
0.033274 0.093744 1.057341
0.316958 0.078878 1.223966
0.089174 0.206944 1.148798
0.214360 0.060731 1.146589
0.225232 0.096303 1.149085
0.286506 0.079474 1.203260
0.084624 0.166430 1.166696
0.309534 0.069034 1.231809
0.148533 0.087943 1.122187
0.048418 0.127686 1.164533
0.212145 0.076567 1.154438
-0.099330 -0.051217 1.153420
0.190951 -0.313700 1.303046
-0.158837 -0.322864 1.362014
0.434125 0.098613 1.468865
-0.130988 -0.188679 1.304002
-0.185034 -0.192265 1.350088
-0.013351 0.017905 1.129169
0.330826 0.360701 1.149043
0.394147 -0.137285 1.261059
0.226711 0.109611 1.177598
0.200693 0.123346 1.166999
0.254173 0.164694 1.205894
-0.027681 0.013387 1.137781
-0.089105 0.200048 1.221051
0.114084 -0.275104 1.208353
0.330402 0.068382 1.204488
-0.072156 -0.073331 1.130957
0.344533 0.050206 1.230817
0.527756 0.275545 1.419489
-1.446605 0.790569 -0.715819
0.289019 0.016339 1.244417
-0.148187 -0.192543 1.348094
0.011318 0.018121 1.143547
0.053503 0.081745 1.147709
0.130255 -0.364434 1.441301
0.380868 -0.311965 1.345451
-0.052978 0.360269 1.169301
-0.107808 0.126395 1.231924
0.185976 0.100257 1.143911
0.047999 0.157016 1.129618
0.152889 0.029890 1.117301
0.368679 0.152262 1.284195
-0.131845 -0.068250 1.221964
-0.178131 0.094060 1.299404
0.380500 -0.020112 1.247058
-0.052299 0.002776 1.151770
0.285151 0.069552 1.195881
0.193190 0.108929 1.180227
-0.081804 -0.069648 1.137130
0.042926 -0.292706 1.311787
-0.235373 -0.147889 1.406458
0.065292 0.163560 1.161802
0.282769 0.193119 1.232113
0.381957 0.076411 1.276781
0.181561 0.120474 1.143460
-0.224128 -0.132603 1.348536
0.153485 -0.085930 1.112542
0.303859 0.068327 1.213262
0.167827 0.073004 1.144020
-0.138898 0.155835 1.306015
-0.168440 -0.229407 1.418176
-0.200800 -0.062595 1.350701
0.010031 0.076206 1.162330
0.022619 0.086672 1.154077
0.345870 0.380539 1.043844
-0.146507 0.158314 1.317729
0.079880 0.210011 1.178580
0.396480 0.040042 1.294043
0.335593 -0.153182 1.236698
0.115038 0.214212 1.180281
0.118848 -0.010986 1.178691
0.150035 0.173361 1.158756
0.304407 0.068044 1.227235
-0.201420 -0.003233 1.404298
-0.143132 0.112362 1.256996
-0.191170 0.252906 1.461960
-1.096545 -0.200047 2.695329
-0.187632 -0.041272 1.330661
0.393500 0.016251 1.266350
0.152115 0.082080 1.119295
-0.049471 0.015895 1.163996
0.081902 0.166226 1.175557
0.194062 0.124270 1.165423
0.377408 -0.045507 1.218218
0.092261 0.201830 1.185073
-0.177551 -0.042769 1.273987
0.272982 0.087962 1.196800
-0.013501 0.162238 1.204398
-0.090902 -0.002130 1.172869
0.123316 -0.008385 1.119644
0.170283 -0.347934 1.408940
0.038559 0.104068 1.168908
0.300096 0.079303 1.220381
-0.008872 0.162565 1.172249
0.153122 -0.391118 1.572229
0.045832 0.113113 1.191924
0.007099 0.011966 1.053358
0.243924 0.068068 1.169980
0.096255 0.226073 1.212194
-0.162224 -0.190993 1.346803
-0.039846 0.019195 1.162045
0.039710 0.200798 1.184662
0.103851 0.206568 1.138741
0.328705 0.351997 1.140180
0.591927 0.220799 1.658216
0.242721 0.206537 1.210567
0.152505 0.174056 1.170015
0.098355 -0.051060 1.127438
-0.195626 0.245158 1.521842
0.111933 -0.331655 1.317609
-0.013578 0.123169 1.174354
2.126846 -0.105925 2.730864
0.048622 -0.230928 1.291369
0.378385 0.128727 1.314498
0.229887 0.061942 1.153170
-0.025634 0.078073 1.165824
0.121877 -0.010316 1.138345
0.284831 0.057090 1.175343
0.359096 0.078711 1.255385
-0.103606 0.032079 1.187896
0.299660 0.066012 1.210563
0.289754 0.056385 1.206910
0.056360 -0.323144 1.656891
0.265410 0.195421 1.206226
0.007737 0.162238 1.184562
-0.061870 -0.071749 1.125426
0.154119 0.028245 1.113788
0.381327 0.071595 1.292004
0.021675 0.023660 1.143706
0.268982 -0.226521 1.590152
0.211313 0.068845 1.144032
0.177707 0.080312 1.136573
0.408742 0.102611 1.378470
-0.056543 -0.385961 1.558994
-0.099742 -0.099470 1.142469
-0.051272 0.006039 1.154737
0.366844 0.089943 1.274158
0.264099 0.100237 1.195739
0.353896 0.079416 1.261778
0.298684 0.005368 1.202897
0.396059 0.122848 1.336767
0.372023 -0.187203 1.387043
0.376655 0.153540 1.295399
0.035630 0.079116 1.154920
0.161675 0.107360 1.142059
-0.116522 0.188159 1.227870
-0.106235 0.282129 1.300811
0.083872 0.190770 1.178517
0.118232 0.197949 1.168344
0.043659 0.148405 1.178768
0.146485 0.181828 1.181823
-1.490185 -0.285424 3.669649
0.384715 0.192019 1.324747
-0.299503 -0.185384 1.715179
0.230082 0.060866 1.159659
0.250852 0.061643 1.170656
0.158964 0.101701 1.131728
0.326471 0.057934 1.228689
0.277439 0.026599 1.187440
0.361969 0.133350 1.280249
0.318359 -0.210090 1.520597
-1.629861 0.784848 -0.726611
0.317951 0.051820 1.207753
0.347403 0.187080 1.276051
0.350896 0.058021 1.244280
0.497460 0.333709 1.435215
0.330656 0.081611 1.245160
0.436863 0.057484 1.494934
0.313837 0.192926 1.261568
-0.224672 0.184403 1.478799
0.141636 0.137476 1.148710
0.413611 0.042816 1.382538
0.326290 0.077498 1.249376
0.173679 0.124965 1.149224
-0.136806 -0.284886 1.208653
0.110570 -0.401905 1.619413
0.403642 -0.085713 1.556259
0.163979 0.326011 1.232131
0.166060 -0.180738 1.720058
0.283611 0.065494 1.191580
0.389575 -0.016263 1.267990
-0.219703 0.183449 1.450335
-0.164895 -0.196034 1.361726
0.428847 -0.200856 1.457148
0.376703 0.032533 1.260378
0.447594 0.053299 1.510525
0.169623 0.133925 1.159919
0.143701 0.177622 1.160095
0.420507 0.166142 1.927556
0.310320 0.169918 1.747397
0.238573 0.089197 1.167475
0.061692 0.066052 1.118172
0.361372 0.074819 1.255728
0.315948 0.053701 1.218750
0.382619 0.068803 1.288878
-0.243452 0.786738 -0.602202
0.262490 -0.191805 1.526255
0.408031 0.054225 1.367514
0.163431 0.016276 1.118341
-0.645003 0.874231 -0.546168
0.428435 0.086121 1.573191
-0.300598 0.816533 -0.488612
0.221362 0.918792 -0.349881
0.320063 -0.364071 1.524447
0.204987 0.078212 1.155664
0.351092 -0.185886 1.251459
0.365063 0.072851 1.250543
0.142672 0.075701 1.131298
-0.095086 0.135975 1.210653
0.261434 0.097130 1.198620
0.427090 0.056315 1.520748
0.183220 0.108625 1.162335
0.422957 -0.135985 1.506215
0.326269 0.078672 1.223409
0.274338 0.056925 1.191081
0.405702 0.095498 1.374709
-0.041070 0.025834 1.156623
0.342984 0.078999 1.252559
0.286771 0.197500 1.240503
0.285842 0.064321 1.202855
0.380508 0.114267 1.277240
0.386142 0.092932 1.310577
0.141846 0.141664 1.150262
0.048229 0.203698 1.190960
0.428800 -0.096243 1.454914
0.167365 0.201908 1.174224
0.331600 0.350516 1.142922
-0.016252 0.162136 1.193763
0.429336 0.060167 1.480257
0.212201 0.105944 1.168825
0.381111 0.333922 1.182492
0.234313 0.064995 1.163151
0.361206 0.043104 1.245683
0.429919 0.058031 1.517172
0.384345 0.076824 1.286529
0.386271 0.113447 1.277270
0.188600 0.346012 1.229342
0.281596 0.083793 1.210338
-0.151177 0.813561 -0.360321
-1.592243 1.224725 -1.818114
-0.941195 1.196912 -1.516025
0.331304 -0.052192 1.703088
0.506289 0.735895 -0.089534
0.225475 -0.195551 1.719762
0.341690 0.350162 1.170544
-0.041622 -0.346587 1.384180
0.065280 -0.054825 1.065953
0.035665 -0.247040 1.292167
0.219285 0.078221 1.162642
0.376155 0.180168 1.300066
0.379486 0.026747 1.261783
-0.024680 0.158502 1.187217
0.466151 0.039019 1.507202
-0.388660 1.033285 -1.032001
0.354213 -0.203313 1.544191
0.278612 0.143776 1.220173
0.413768 0.020904 1.392740
0.386061 0.098761 1.575085
0.303518 0.058705 1.212166
-0.104277 0.774656 -0.339740
0.420803 -0.064284 1.537130
0.393459 0.123685 1.325717
0.293872 -0.223387 1.686934
-4.486574 2.640947 -5.336129
-0.531768 0.805640 -0.594796
0.159654 0.071492 1.127095
-0.028439 -0.105831 1.178927
0.182266 -0.410354 1.540656
0.222023 0.094487 1.173939
-0.665806 -0.243115 3.155297
0.039209 0.213008 1.201846
0.377271 0.045174 1.291020
0.221986 0.089158 1.168221
0.242954 0.102743 1.189037
0.422159 0.090118 1.456743
-1.504015 -0.049787 -0.938068
0.446308 0.022985 1.427717
0.340341 0.060185 1.259256
0.244263 0.098718 1.186938
0.268061 0.200737 1.224521
0.373684 -0.331543 1.332804
0.222984 0.075840 1.204337
0.258861 -0.302623 1.601501
0.341871 0.077632 1.242068
-0.334740 0.861300 -0.448153
-1.567973 1.293419 -1.862190
0.016055 -0.273880 1.717235
0.020482 -0.275909 1.712304
0.415789 -0.092573 1.554832
0.431197 -0.081320 1.549656
-1.379155 0.886413 -0.799941
0.434737 0.100814 1.580752
0.411918 0.083915 1.398126
0.362409 0.051575 1.261945
0.373048 0.100497 1.287707
-1.870770 0.270303 0.953012
0.436719 0.091770 1.555949
-0.063917 -0.081131 1.126518
0.035238 0.173858 1.146054
0.362981 0.047785 1.257199
0.171060 -0.404274 1.598810
0.189409 -0.112559 1.283204
0.240852 -0.119883 1.264424
0.394526 0.062389 1.296316
0.418117 0.087405 1.424041
0.105775 -0.236983 1.739534
0.381469 -0.008791 1.263521
0.005369 -0.337109 1.324275
0.153233 0.141137 1.152019
-0.041814 0.006577 1.155326
0.397867 -0.125322 1.560397
0.410755 0.050232 1.365287
0.155471 0.139882 1.965835
0.264349 0.053778 1.178728
-0.071375 -0.096002 1.129145
-0.092693 -0.101293 1.139714
0.303906 0.079843 1.210020
0.431912 0.019410 1.499163
0.537011 -0.466579 1.919763
-0.082707 0.317830 1.261239
0.228682 -0.117822 1.267841
0.435597 0.060729 1.521055
0.315410 0.045744 1.204120
0.439772 -0.094331 1.499610
-1.633285 0.805640 -0.731936
0.142923 0.799843 -0.287727
0.238507 -0.190355 1.708094
0.419213 0.069671 1.603407
0.071142 -0.250915 1.737707
0.281953 -0.223244 1.694363
0.424365 0.100061 1.452505
0.386661 -0.022061 1.250423
0.393162 0.080909 1.306308
0.345433 -0.197592 1.544078
0.282644 -0.130016 1.255658
0.295565 0.011615 1.165436
0.452571 0.046844 1.491108
0.365708 0.160146 1.300777
0.432934 -0.006076 1.489097
0.092488 -0.170677 1.100264
0.216241 0.052084 1.142346
0.338741 -0.161939 1.639478
0.435511 -0.009642 1.491524
-0.076854 0.039128 1.823866
0.432930 -0.010382 1.483980
0.061398 0.103595 1.831853
0.378244 0.179354 1.308133
0.150984 0.027081 1.115120
0.411043 0.094274 1.380113
0.106624 0.133155 1.204477
0.415832 0.113243 1.437217
0.408819 0.050234 1.367393
0.417890 0.081475 1.421109
0.155925 0.314074 1.238445
0.441900 -0.006942 1.490447
0.428271 0.357152 1.199656
0.275472 -0.302430 1.592993
0.297649 -0.224230 1.679411
0.390510 0.057003 1.276261
-1.510936 0.842313 -0.758434
0.409521 0.051229 1.365533
0.159762 -0.186708 1.715785
0.368453 0.076586 1.254597
0.431490 0.052250 1.516730
0.409510 -0.105861 1.543634
0.348094 0.011792 1.662426
0.402156 -0.087734 1.411162
0.408514 0.094673 1.373860
0.269934 0.016833 1.180435
0.412483 0.118047 1.399977
0.349448 -0.124667 1.213875
0.260882 -0.205801 1.701096
-0.551139 1.042815 -1.185075
-1.750784 1.314711 -1.970378
-1.584171 0.956614 -1.132219
-1.333321 1.076881 -1.582190
-2.299478 0.184584 -1.461155
-1.288990 1.049203 -1.542486
-0.499447 1.060908 -0.705556
0.106595 -0.325424 1.319718
0.216400 0.056008 1.139098
-0.625382 0.862945 -0.660706
-0.368752 0.968469 -1.079767
-1.273147 1.048221 -1.519244
0.338753 -0.249214 1.592734
0.151195 -0.283091 1.651886
-1.778298 0.265831 0.917287
0.372242 0.057447 1.270997
0.297874 -0.325413 1.313341
-1.008257 0.785227 -0.582683
0.371482 0.156544 1.304830
0.253473 0.106923 1.789393
0.120135 -0.253413 1.096920
0.283649 -0.377240 1.554672
-1.973773 0.428782 0.473013
-1.788631 0.004557 -1.077679
0.034457 -0.415889 1.591123
-1.905134 0.018891 -1.174682
0.427757 0.074116 1.474781
0.375003 -0.104066 1.603349
0.372703 0.139434 1.288075
0.358032 0.175968 1.304675
0.409333 0.096743 1.373920
0.309700 0.062894 1.228936
-1.985858 0.755009 -0.444583
0.349751 0.011158 1.663934
0.182018 -0.236930 1.165807
-6.077423 3.497504 -7.060465
-6.372764 1.228412 -5.131385
0.395501 0.042476 1.294593
0.433194 0.021598 1.498580
-0.553345 0.810351 -0.462975
0.421635 0.020997 1.418547
0.110835 -0.208709 1.741009
0.373336 0.117589 1.286134
0.254170 0.123212 1.273891
0.362117 0.252461 1.583238
0.153373 0.099142 1.140882
0.077532 0.033579 1.120076
0.092786 -0.027865 1.090743
0.151727 0.137492 1.973350
-1.682091 1.018301 -1.240931
-1.796321 0.689773 -0.361937
0.117010 -0.335625 1.648028
0.422965 0.103960 1.475565
0.170136 0.264762 1.192462
0.068511 -0.408213 1.607493
0.240987 0.168391 1.216257
0.405699 0.124735 1.384303
0.262757 0.151553 1.218665
0.379766 0.328320 1.182284
0.122647 0.282864 1.188848
0.204953 -0.165881 1.129487
0.158667 0.018494 1.115011
-0.030090 -0.000562 1.825402
0.164033 0.231121 1.179186
0.430748 -0.007719 1.491893
-1.869755 0.223550 1.094022
0.394188 0.110081 1.326319
0.129809 -0.215206 1.086881
0.447261 0.084701 1.554134
0.353822 0.187709 1.298226
0.332797 0.094820 1.625804
0.464866 0.051739 1.429863
0.377873 -0.041608 1.299613
0.067907 -0.300528 1.688913
-5.007777 0.900580 -4.076907
0.430254 -0.138306 1.501917
0.084929 0.093123 1.832630
0.362101 -0.130286 1.214553
0.232879 -0.120315 1.271061
-1.726600 0.250485 0.871394
0.436248 0.021214 1.502198
0.238152 0.201515 1.787225
0.564528 0.192265 1.806187
0.356626 0.011597 1.665894
0.131541 -0.245713 1.182017
0.323118 0.076704 1.230039
-1.579285 0.977853 -1.144110
0.373888 0.113865 1.368574
-0.090254 0.039042 1.823916
0.308415 0.334175 1.292659
0.193408 0.076063 1.161152
0.312368 0.000508 1.188288
0.043542 -0.254458 1.286385
0.423978 0.100935 1.489186
0.639281 0.540953 0.948956
0.502008 0.546076 0.696300
0.433648 0.084594 1.520901
0.336501 -0.118432 1.210179
0.149171 -0.090295 1.239807
0.144035 0.281273 1.193904
0.286272 -0.163435 1.435618
0.333524 -0.118974 1.659387
-1.619766 -0.316083 0.393697
-1.589034 -0.323480 0.391590
-1.605757 -0.321893 0.395435
0.412485 -0.106591 1.560750
0.383132 0.027964 1.262805
-1.608928 -0.310343 0.401973
-1.630625 -0.294975 0.412703
-1.626202 -0.307427 0.399040
-0.951199 0.891801 -0.642406
0.428665 0.032198 1.472705
0.388807 0.040843 1.277422
0.419841 0.083550 1.453426
0.205243 -0.077126 1.761378
0.197122 -0.231861 1.105534
0.230818 -0.225368 1.716191
0.448694 0.791774 -0.119495
0.370445 0.068153 1.362794
-1.368954 1.265229 -1.216893
0.381406 -0.116411 1.620834
0.101718 0.734082 -0.221300
0.361493 0.005050 1.670332
0.416545 0.084799 1.591197
0.254914 -0.191479 1.702161
-1.983004 0.325669 0.871194
-0.540549 1.093207 -1.251128
0.432252 0.049228 1.570826
-0.311610 0.993433 -0.806467
-0.655785 1.170730 -1.382746
0.161310 0.808721 -0.283532
-0.317420 1.056929 -0.976990
-0.911077 0.786364 -0.578836
0.438500 0.112237 1.561605
0.392176 -0.117016 1.566785
0.462504 0.196946 1.758530
0.414860 0.081506 1.420601
0.416209 0.095623 1.401697
0.285394 0.135364 1.221177
0.098276 0.082362 1.830987
0.151824 0.143021 1.170554
0.427624 0.079843 1.495620
0.377904 0.130974 1.316893
0.052391 -0.250595 1.290264
0.185071 0.119739 1.163385
-0.047025 -0.130495 1.128960
-1.100929 -0.203794 2.624245
0.133925 0.051635 1.241379
0.385193 0.043192 1.296699
0.443065 0.081632 1.399983
0.436043 -0.090202 1.500008
0.204650 -0.206391 1.708065
0.429068 -0.083012 1.532916
0.288626 -0.150623 1.683386
0.354406 -0.063603 1.702227
0.157843 -0.276013 1.644937
0.408692 -0.160592 1.658289
0.323877 0.323255 1.281903
-0.026967 0.079237 1.170020
0.191919 -0.161495 1.129809
0.421544 0.181991 1.306199
0.392717 0.080056 1.297594
0.296376 -0.256374 1.662439
0.157804 0.193936 1.246992
0.190674 -0.244861 1.633889
0.147792 0.071412 1.127835
0.189450 0.181726 1.219768
0.104940 -0.250237 1.091703
0.396571 0.239748 1.358116
-1.572873 0.755422 -0.715788
0.430647 0.086331 1.523799
-1.683040 -0.280225 0.475598
-1.684944 -0.276067 0.464287
-0.101989 0.143174 1.225746
-0.092795 0.199851 1.227810
-0.192769 0.157828 1.408746
0.351785 0.008199 1.663576
0.422904 -0.088352 1.451832
0.415874 0.019580 1.391409
0.366977 0.160618 1.304242
0.104336 -0.192064 1.080410
0.447445 -0.014632 1.490735
0.206292 -0.246256 1.195338
-1.602771 1.215335 -1.781480
0.323553 0.284139 1.346401
0.382769 -0.097795 1.565657
0.373905 0.064256 1.649650
0.175941 -0.008408 1.110468
0.410365 0.074808 1.461233
-1.279977 1.401552 -1.828481
-0.977100 1.138521 -1.450279
-0.553934 1.054118 -1.200508
-0.779964 0.958086 -0.798382
-0.325989 1.000765 -0.967324
0.426150 0.436511 0.894507
-1.613718 0.802220 -0.706299
0.248299 0.125802 1.792713
0.001106 -0.119658 1.208327
0.388062 0.489386 1.573406
-0.619387 0.029969 1.355319
-0.008246 0.174342 1.829768
-0.173723 0.160907 1.684586
0.078517 -0.405338 1.626124
0.388115 -0.200528 1.437936
0.309339 -0.154358 1.651121
0.178438 -0.172378 1.119217
0.327330 -0.113346 1.653810
-0.471796 0.264666 1.385637
0.386320 0.056233 1.276697
0.440939 0.089463 1.361066
0.278682 -0.111944 1.244609
0.445489 0.071678 1.586492
0.385854 0.044230 1.270203
-0.180319 -0.160135 1.259624
0.522120 0.731020 -0.069854
0.309881 -0.100383 1.647214
0.371978 0.269688 1.570844
0.427135 0.059669 1.547171
0.606367 -0.068630 1.485290
0.134949 -0.405983 1.613483
-1.322271 -0.165157 0.629614
-0.615071 0.015792 1.407852
0.428953 0.080855 1.555101
0.315186 -0.067642 1.675470
-1.629780 -0.293622 0.417950
0.145573 0.322493 1.223163
0.095856 -0.191862 1.073585
0.015374 -0.119293 1.137201
0.011236 -0.121406 1.141350
0.038301 -0.135932 1.329327
0.209325 -0.247556 1.200150
-0.129114 0.183656 1.272438
-1.318885 0.852294 -0.736660
-6.345112 1.182434 -4.963500
-1.401351 0.880758 -1.037432
0.372351 0.052746 1.642814
0.322510 0.422990 0.727708
-0.081962 -0.380784 1.515693
0.408653 0.111183 1.326968
-2.263857 0.170364 -1.431145
-1.412358 1.264753 -1.759402
-0.115061 0.176062 1.300344
0.366371 -0.018649 1.242579
-0.379231 0.852785 -0.455123
-0.299420 0.907697 -0.517722
-0.200778 0.086422 1.347591
-0.162925 0.109495 1.684153
-0.115277 0.184154 1.251861
-0.135977 0.126744 1.258434
0.151965 -0.082371 1.084667
0.305382 -0.172086 1.226818
0.158276 0.082489 1.127521
0.049046 -0.243496 1.734991
-0.592677 0.850217 -0.526972
0.182256 0.123218 1.964984
0.218601 -0.248136 1.168161
0.170213 -0.049083 1.088684
0.348739 0.346880 1.174014
0.317362 -0.127883 1.671159
-0.187493 0.265387 1.502608
0.185632 0.336129 1.230755
0.042779 -0.349555 1.646367
-1.316203 -0.197880 0.806551
0.268088 -0.249497 1.154002
-1.164968 1.051874 -1.447310
-1.481314 1.083024 -1.557232
0.114250 0.721272 -0.212775
0.293952 0.063811 1.770132
0.161548 0.121118 1.142450
0.366194 -0.286181 1.421670
0.192492 0.124582 1.176967
0.306371 -0.292682 1.568861
2.204932 -0.051081 2.490421
-1.697038 -0.286458 0.459854
-1.710174 -0.283814 0.464844
-1.502200 -0.288667 0.560587
-1.657185 1.023076 -1.278738
0.166847 0.088196 1.808780
0.442230 -0.074216 1.505523
0.074869 -0.319849 1.649068
0.421743 -0.074319 1.240970
0.151791 -0.096679 1.668219
0.250692 -0.030497 1.747325
0.339009 -0.250056 1.591888
0.421010 -0.080822 1.530930
0.110449 -0.082302 1.075828
0.063354 -0.065580 1.057050
0.341976 -0.134448 1.666129
0.179091 -0.312295 1.245690
-0.133613 0.151809 1.713999
1.701339 0.125349 1.466925
0.453575 0.492352 0.711081
-0.138185 0.180558 1.306385
-0.057072 0.325794 1.279051
0.339264 -0.279559 1.199696
-1.680990 -0.275957 0.464710
0.799776 -0.106556 1.844608
0.241415 0.097943 1.179591
-0.020778 -0.181499 1.134964
0.299544 -0.238998 1.657967
0.546079 0.173372 1.823570
0.426085 -0.137998 1.506082
0.289131 -0.133417 1.244476
0.371445 0.181732 1.289802
0.408317 0.151267 1.906223
0.518782 0.241498 1.791524
-1.668504 -0.273109 0.467926
-1.606686 -0.264177 0.411781
-1.600394 -0.322926 0.395668
0.423202 0.023241 1.383632
-0.096016 0.972186 -0.507207
2.412851 0.384451 0.710914
0.193264 0.342577 1.226756
-0.217768 -0.102279 1.406990
0.306363 0.045988 1.114268
0.233321 0.068431 1.163053
-0.138247 -0.372330 1.593208
-0.163321 -0.198817 1.592638
-0.644102 0.254722 1.418670
0.267084 0.105476 1.783749
-0.181288 0.105085 1.321331
-1.668544 -0.272238 0.471851
0.033864 -0.239417 1.736017
0.138423 -0.078962 1.081234
-1.101578 0.855075 -0.678522
-1.927167 0.308294 0.869764
-1.561815 -0.253696 0.505318
-1.578475 -0.299882 0.557790
0.028848 0.025103 1.149766
-0.065403 0.138184 1.185471
0.220438 -0.146846 1.524890
-0.472174 0.255006 1.426154
-0.201142 0.729773 -0.308385
0.185834 0.750956 -0.243140
0.122436 -0.038344 1.098740
-1.682992 -0.281328 0.459994
-1.622542 -0.302809 0.407039
0.227438 0.092385 1.154860
-0.119065 0.186901 1.738337
-0.177483 0.154149 1.387465
0.399739 0.788636 -0.181239
0.047603 0.827405 -0.311349
0.065669 0.767802 -0.251618
0.359461 0.044113 1.246856
0.391978 -0.110033 1.602519
-0.461033 0.846329 -0.468820
-1.439845 0.844085 -0.758368
-0.810207 1.083808 -1.328681
0.190604 -0.318704 1.327116
0.037175 -0.301883 1.306586
0.583741 -0.469847 1.921106
0.584290 -0.473223 1.921751
0.580193 -0.470633 1.914889
0.416828 -0.209361 1.426649
0.299647 -0.149942 1.690573
-1.610363 -0.317806 0.413002
-1.624911 -0.273384 0.415148
-1.628824 -0.273869 0.414388
0.902557 0.191291 1.934331
-0.485844 0.254233 1.363255
0.397562 -0.096648 1.390366
0.379682 -0.093061 1.396535
0.308812 -0.248255 1.649537
-0.223598 0.854359 -0.438617
0.214095 0.069441 1.784696
-1.402579 -0.197474 0.575413
-1.530173 -0.332657 0.570041
-1.700421 -0.287055 0.460833
0.409477 0.004805 1.488619
-1.874644 -0.151336 3.115735
0.369396 0.076716 1.287480
-0.021279 -0.273397 1.131196
-1.065075 0.895986 -0.726353
0.155473 0.760045 -0.242641
0.421145 0.108399 1.453735
0.118577 0.137382 1.165852
0.296054 -0.203871 1.685360
0.404268 0.052967 1.370422
-0.788251 1.018985 -1.262388
0.247995 0.068251 1.186613
0.472126 0.766059 -0.124361
0.273942 -0.159525 1.217152
0.302869 -0.097433 1.221176
0.030668 -0.397949 1.573761
-1.618585 0.239149 0.857981
0.414794 0.157725 1.926822
-0.105300 -0.123249 1.150352
-0.617518 0.279453 1.365813
0.354420 0.088955 1.254772
-0.099467 0.175413 1.235740
0.285729 -0.146112 1.680592
0.258872 0.104891 1.794526
0.382039 -0.046677 1.596701
0.074696 0.243201 1.151330
-0.145409 0.182100 1.710161
-1.560379 -0.258020 0.486202
-1.779138 0.875310 -0.846253
0.357194 0.099974 1.282189
-1.635200 -0.307319 0.400767
-0.100538 0.196115 1.227729
-0.102449 0.136828 1.201961
0.374870 -0.211154 1.538019
0.419531 0.084952 1.437714
-0.181587 0.109489 1.663278
0.048156 -0.134779 1.333598
0.307716 -0.154766 1.681537
0.155624 0.200505 1.171662
0.417047 0.065641 1.544169
0.012023 -0.397537 1.614058
0.118855 0.108645 1.195929
0.254736 0.060650 1.174679
0.289845 -0.296742 1.584241
0.061057 -0.073672 1.215011
2.095393 -0.067285 2.465341
0.360971 0.390798 0.963369
-0.186922 0.101730 1.343828
0.263356 -0.270745 1.669560
0.293938 -0.274582 1.633651
0.415460 -0.130801 1.522150
0.224480 -0.107755 1.138448
0.140081 0.151427 1.185709
0.107367 0.097108 1.143293
0.451400 0.012634 1.479675
0.067756 0.184314 1.162922
-0.266650 0.265374 0.449639
-0.038907 0.016549 1.160705
-0.022187 -0.267074 1.127050
0.337593 0.056552 1.233958
0.281839 -0.306594 1.588394
0.245540 0.079953 1.192906
0.219141 -0.106628 1.155094
-0.705087 -0.233512 3.231153
0.343440 0.156077 1.706643
0.330108 0.358530 1.144443
-0.100106 0.240502 1.218067
-0.063465 0.311426 1.314204
0.378104 0.208765 1.340623
0.137120 -0.107618 1.148765
0.205950 -0.122415 1.114768
0.093350 -0.100021 1.185762
0.099460 0.197627 1.175461
-1.617840 -0.305759 0.390135
-1.645294 -0.306100 0.399753
0.127511 0.097330 1.167139
0.257180 0.007703 1.157638
-0.051467 -0.178510 1.165444
0.366342 0.085703 1.268779
0.076456 0.216648 1.201311
-1.728832 -0.303415 0.405514
-0.616258 0.279929 1.365300
-0.052573 0.158736 1.199209
0.446174 0.146992 1.905823
-0.130277 -0.303526 1.536407
0.442944 0.488845 0.690621
0.148309 -0.196851 1.721662
0.281033 0.142574 1.225193
0.614490 0.512113 1.019985
0.474654 -0.334407 2.033695
0.610669 0.527112 0.948052
0.176424 0.192401 1.210820
0.267527 0.075524 1.196127
0.191946 -0.249563 1.102630
0.425546 0.094056 1.505461
-1.694104 -0.281719 0.458955
0.373843 -0.125103 1.571730
0.364289 0.001926 1.247658
0.359929 0.011358 1.612719
-1.236198 -0.176457 2.710597
0.217110 0.068957 1.166121
0.281403 0.136424 1.218415
-1.625407 -0.296175 0.412221
-1.604568 -0.318739 0.394330
-1.614387 -0.310478 0.523240
-1.611074 -0.315997 0.411539
-6.312529 1.216815 -5.107268
-5.989831 0.529341 -4.879025
0.085454 -0.278434 1.714096
-1.144290 -0.111011 0.683015
0.167813 0.099024 1.187836
0.417708 0.051619 1.404017
0.281677 -0.177141 1.695850
0.394965 0.123365 1.327958
0.371954 -0.001327 1.257316
2.386389 0.169036 1.795052
2.141383 0.140733 1.666513
-1.678375 -0.274749 0.465621
-0.061277 -0.045375 1.229620
0.435392 0.095339 1.435060
0.304492 -0.235188 1.668044
-1.973394 0.437460 0.415716
0.315772 0.071090 1.275802
-0.051317 0.016423 1.151594
0.369546 0.006867 1.654310
0.441931 0.080706 1.373347
0.440130 -0.011758 1.476351
0.221217 -0.272365 1.105174
0.452131 0.054059 1.507449
0.282782 0.098532 1.207755
0.155771 0.096291 1.194112
0.177277 0.071050 1.124031
0.150214 0.195441 1.168088
0.158499 0.018262 1.113747
0.274379 -0.403624 1.534962
-1.441447 -0.244950 0.533243
0.393808 0.101401 1.385288
0.193334 0.036597 1.225957
0.117732 0.122313 1.258024
0.144549 0.075664 1.133694
0.262322 0.029722 1.186219
0.190073 0.065744 1.153835
0.327294 0.085498 1.238486
-1.212942 -0.185083 2.705580
-1.629101 -0.296115 0.411206
-1.641865 -0.279934 0.420189
-0.431575 0.304808 1.273018
0.086744 0.330574 1.236883
0.364453 -0.285224 1.425310
0.300856 -0.256387 1.584284
-2.051256 0.451671 0.478407
0.099808 0.159336 1.179670
-1.598279 -0.260621 0.494044
0.217470 0.068226 1.144796
2.099699 -0.072519 2.521281
-0.136959 -0.248163 1.620346
0.366856 -0.148062 1.221943
0.242497 0.093576 1.180079
0.270120 0.095477 1.220208
0.196235 0.102431 1.163126
0.394735 0.053294 1.301455
0.328294 0.359912 1.170795
0.417291 0.016056 1.394335
0.251317 -0.222651 1.708518
0.447604 0.513597 0.567411
-1.625919 -0.296132 0.414664
-1.638205 -0.317488 0.403782
-0.026254 0.089291 1.202033
0.393599 -0.241193 1.467550
0.436862 -0.012175 1.485908
-2.183979 0.479817 0.486224
-1.912777 0.409380 0.466519
0.207793 0.110329 1.174632
-0.007895 0.128855 1.257722
0.187781 0.074758 1.128964
0.233926 0.168913 1.211949
-1.604380 -0.320982 0.389943
-0.117774 0.125372 1.212976
-0.159228 -0.246870 1.559942
0.011772 0.002690 1.137487
-0.497191 -0.250231 3.012950
0.071714 -0.070661 1.181971
-1.870163 0.224492 1.102010
0.068994 -0.074619 1.189578
0.373141 0.394960 1.002707
-1.663999 -0.271480 0.474190
0.477387 0.276902 1.834390
-0.146350 -0.354556 1.414127
2.150254 -0.095344 2.725799
0.339315 0.369860 1.037130
0.164466 0.194699 1.167546
0.008726 -0.171530 1.125970
-1.653833 -0.269388 0.476411
-1.512894 -0.314828 0.588676
0.278284 0.013611 1.208002
0.425075 0.090553 1.445614
0.367287 0.041254 1.538037
0.290404 -0.398242 1.515478
0.199227 -0.101257 1.178800
-1.708792 -0.303861 0.453021
-1.613952 -0.308632 0.413172
-1.616841 -0.264347 0.408501
-1.599854 -0.307424 0.397758
0.077730 0.164643 1.165653
0.053159 -0.379513 1.517673
-1.188591 -0.121991 0.749649
-1.547415 -0.252837 0.498216
-1.619990 -0.267245 0.410304
-1.628886 -0.296137 0.411340
0.143002 -0.046033 1.033422
0.339882 0.088252 1.257166
0.249066 -0.111094 1.177409
0.125962 0.137349 1.155600
0.150565 0.105792 1.142777
0.257570 -0.388352 1.568860
0.205605 0.110674 1.145482
0.302249 -0.249167 1.662403
2.191513 0.141793 1.696693
0.328713 0.106915 1.273919
0.156468 0.209266 1.172852
-0.116814 0.141472 1.211336
-0.622653 0.276492 1.364750
0.161965 0.057320 1.124206
-0.136628 0.156300 1.275041
-0.126640 0.183920 1.725904
-0.114921 -0.285405 1.535712
0.140841 0.075816 1.125618
-0.036587 -0.120991 1.212694
-0.043670 -0.130753 1.261093
0.293010 0.141352 1.234827
-0.144622 -0.025873 1.239554
-0.077959 0.137513 1.321324
0.039322 -0.265507 1.331893
0.017250 0.280331 1.304610
0.243818 -0.124232 1.263237
0.163363 0.218640 1.175822
0.344500 -0.076685 1.434048
0.430216 0.077316 1.496406
0.307065 -0.270790 1.167745
0.227798 0.345315 0.958486
0.442951 0.482966 0.721162
0.100361 -0.380256 1.680756
0.436020 0.073132 1.506322
-0.333547 0.121729 1.328665
-0.111389 0.192306 1.234398
-0.154609 0.110581 1.335712
-0.182318 0.141932 1.361055
-1.546996 -0.316793 0.564670
-1.615921 -0.307745 0.412386
-0.191753 0.103661 1.340015
-0.616842 0.280740 1.367187
-1.460850 -0.248088 0.527510
0.171520 0.069376 1.131265
-1.669931 -0.282454 0.460651
0.281934 -0.145835 1.709653
-0.062588 -0.301145 1.580850
0.376594 0.423050 0.850668
0.138211 -0.245172 1.099632
-0.174138 0.014856 1.307912
-0.138804 0.122679 1.295529
-0.140809 -0.036814 1.224440
-0.118535 0.130853 1.246990
0.257532 -0.371165 1.506878
-1.678821 -0.283603 0.459838
0.386740 0.450820 0.744872
0.599414 0.516254 0.974626
-1.698320 -0.280615 0.461284
-0.111792 -0.364981 1.498968
-0.097853 0.194756 1.226683
0.428235 0.494458 0.619465
0.417277 0.034083 1.416058
-0.292463 -0.025741 1.571113
0.239087 0.165723 1.216600
0.116225 -0.020284 1.113946
-0.169762 -0.232500 1.417127
0.338547 0.078705 1.213511
-0.145511 0.143443 1.268018
-0.492291 -0.252048 3.014807
0.186134 0.129883 1.174259
0.359915 0.179742 1.258073
-2.110686 0.324307 1.021040
0.389350 -0.117890 1.244089
0.367193 -0.120950 1.215546
0.213033 -0.080025 1.100442
0.331599 0.347284 1.144671
0.075634 -0.283732 3.139512
-0.066954 -0.333200 1.260318
-0.513325 0.050640 1.185545
0.434805 0.079163 1.518661
-1.619876 -0.307559 0.411640
-1.321326 -0.232673 0.571014
-1.031016 -0.176330 0.690549
-1.321963 -0.241399 0.795470
0.053308 0.082841 1.148529
-0.426457 -0.251244 3.414197
-0.192171 0.235336 1.469502
0.284452 0.079715 1.204561
-1.557041 -0.281849 0.480252
-1.408413 -0.288056 0.611761
-1.571714 -0.316183 0.515769
-1.538839 -0.280447 0.485309
0.305396 0.066347 1.211427
-0.010512 -0.173683 1.137024
0.373984 0.081519 1.262703
0.088946 0.149874 1.159010
-1.671496 -0.278570 0.462830
2.286885 -0.038665 2.537224
0.340876 0.057441 1.277324
0.167116 0.216009 1.180975
-0.130358 0.183842 1.721459
-0.481412 -0.250579 3.005663
-1.694323 -0.286967 0.460167
-0.148116 0.173071 1.663605
-1.642912 -0.291323 0.484867
0.181944 0.193058 1.174290
-1.440327 -0.318046 0.564714
-0.168526 0.143471 1.338814
0.379691 0.436701 0.790942
-0.407852 -0.158392 0.905376
-0.472706 0.263748 1.361680
-0.182341 0.038120 1.313004
0.159676 0.167412 1.163677
-2.003838 0.242792 1.145107
0.045905 -0.290590 3.157556
0.271546 -0.340063 1.524494
-0.055747 -0.274425 1.152891
-1.577361 -0.299447 0.474633
-1.147902 -0.107982 0.750970
0.043768 -0.291510 1.312751
-1.643807 -0.279191 0.418366
-1.638849 -0.278435 0.417525
-0.168602 -0.232283 1.352029
0.229424 0.060004 1.152688
0.088366 0.149804 1.155095
0.014847 0.367816 0.492905
0.228007 0.098145 1.180443
-1.679216 -0.279375 0.461402
-1.661514 -0.278809 0.463660
-1.621325 -0.302227 0.408988
1.152618 0.589839 1.588732
-0.170122 -0.198200 1.583914
0.394057 0.442114 0.806401
0.387271 -0.223529 1.369923
-1.246390 -0.251429 0.582854
-1.382441 -0.177019 0.586356
-1.629818 -0.297104 0.413006
-1.629195 -0.295084 0.417015
-0.066697 0.003005 1.137725
0.337374 0.053018 1.227066
-0.098794 0.049541 1.201648
-0.112856 0.175686 1.224020
-0.195989 0.237182 1.488994
-0.162596 0.167547 1.346544
0.429327 0.486403 0.663934
0.391744 0.433466 0.830953
0.400303 0.471013 0.670172
-1.664254 -0.271501 0.474048
-0.157492 -0.240832 1.572414
0.004732 -0.286027 3.049148
-0.136130 0.158997 1.278658
0.219210 -0.421558 1.982969
-0.147586 0.153773 1.350793
-0.011872 0.107464 1.184084
-1.600693 -0.318708 0.390949
-1.605608 -0.318152 0.392155
-1.604311 -0.309693 0.393143
-1.603364 -0.309345 0.392821
-1.707488 -0.283754 0.458191
-1.307350 -0.155824 0.658216
-1.638198 -0.280151 0.421224
-1.304520 -0.168219 0.593276
-1.604478 -0.262349 0.410526
-1.642212 -0.270582 0.405029
0.177347 0.075436 1.140056
-0.187658 0.158234 1.382271
-0.084168 0.138427 1.212757
-0.194074 0.144675 1.376086
0.357611 0.050546 1.239813
0.203840 0.071790 1.105739
-1.692419 -0.277410 0.458410
0.390706 -0.264889 1.412161
-1.616644 -0.305596 0.392737
-0.159456 -0.324996 1.360454
0.263745 0.067574 1.195670
0.362495 -0.343749 1.451436
0.095866 -0.344347 1.405025
0.138241 0.137647 1.144713
-0.489625 0.063395 1.198875
-0.184043 0.136674 1.328386
-1.689842 -0.277773 0.462072
-0.519016 -0.470762 1.243214
-1.606657 -0.324076 0.407974
-1.641395 -0.279399 0.420217
-0.549221 -0.023247 0.939176
-0.171406 0.117197 1.248772
-1.674846 -0.274724 0.464732
-0.147279 0.134349 1.261828
-0.492591 -0.198660 0.892608
0.126621 0.168238 1.143277
-0.032818 0.226064 1.746643
-0.081106 -0.374163 1.521665
1.691816 0.118182 1.468708
2.138279 0.318002 0.680530
0.014977 -0.152703 1.404097
0.364648 0.397822 0.932016
-0.486926 0.252686 1.446616
-0.063407 0.156324 1.191193
-0.496634 -0.190462 0.900065
0.677761 0.575557 0.868809
0.500921 -0.458738 1.902290
-1.574371 -0.250778 0.486925
0.413348 0.394068 1.068620
-0.123043 0.188620 1.731779
-0.446059 0.297712 1.230912
-0.191183 0.133033 1.375345
-0.189433 0.139569 1.357785
0.007854 -0.130395 1.071032
-0.137302 -0.131958 0.992064
-1.661300 -0.270797 0.476825
-1.614685 -0.310114 0.412716
-1.593914 -0.268953 0.549153
0.199562 0.420851 1.448776
-1.570974 -0.259756 0.484291
0.150469 -0.149507 1.113870
-1.614926 -0.309993 0.402441
-1.601618 -0.323681 0.395638
-0.018655 0.207969 1.526433
-0.441641 0.268843 1.482773
2.279543 0.357093 0.685897
-1.580340 -0.263311 0.480385
-1.579840 -0.258727 0.491452
-0.055940 0.022469 1.150641
-0.467526 0.279453 1.255717
-0.168822 -0.200933 1.586838
0.114715 0.196303 1.169391
0.064990 0.172076 1.185623
0.421915 0.466900 0.743433
2.540592 -0.963242 0.390702
-0.165494 0.167053 1.330285
-1.611277 -0.316898 0.412115
-1.624194 -0.308038 0.399455
-0.380476 -0.233557 1.370599
0.056835 -0.404017 1.588561
-1.641588 -0.301196 0.404365
-0.048306 0.141366 1.272768
0.171636 -0.050974 1.087488
0.011699 0.136316 1.477334
-0.381033 0.330113 1.384195
0.346356 0.395068 0.928968
-0.455274 0.271223 1.406411
0.008686 0.093334 1.173837
-0.460164 0.284494 1.293386
-0.244069 -0.036667 1.165689
-0.615879 0.280345 1.366086
-1.668523 -0.272365 0.474357
0.169863 -0.324120 1.282263
-0.194457 0.085647 1.355099
-0.024238 0.119693 1.082852
0.168200 -0.290050 1.061842
-0.094636 -0.000504 1.162947
-1.504783 -0.312763 0.535923
-1.471922 -0.250145 0.524312
-1.617898 -0.266019 0.475382
-1.687453 -0.278383 0.470534
-1.614906 -0.315614 0.411119
-1.627453 -0.301991 0.408696
-1.625891 -0.308282 0.510504
0.496380 0.103958 1.631065
-0.618553 0.159759 0.300688
-1.608565 -0.315553 0.385435
-1.557047 -0.300754 0.574598
-1.562464 -0.300618 0.570639
-1.555848 -0.281666 0.480161
-1.627746 -0.294398 0.417473
-1.369033 -0.230087 0.575160
-1.547297 -0.283270 0.487174
-0.757689 -0.197036 0.698725
-1.564117 -0.274440 0.478521
-1.623141 -0.304978 0.390761
-1.617065 -0.272243 0.416577
-1.639778 -0.282465 0.427395
-0.132782 0.141837 1.278131
-1.706681 -0.289127 0.416319
-0.336031 0.112259 1.213198
-0.181544 -0.236604 1.428951
-1.615950 -0.281185 0.464796
-1.535918 -0.285688 0.488969
-1.628835 -0.296188 0.411996
-0.076481 -0.289674 1.565168
0.041107 0.079468 1.138819
0.031677 -0.144642 1.369163
-0.061348 0.002445 1.145990
-1.702420 -0.279766 0.459388
2.296268 0.349302 0.683191
-0.184113 -0.007384 1.296545
2.361664 0.366939 0.695874
-1.675894 -0.274951 0.465791
0.227364 -0.153391 1.141094
-1.628615 -0.297207 0.413282
-1.417044 -0.195799 0.544534
0.303133 -0.152369 1.183579
-0.197802 0.085046 1.356292
-0.224796 0.133252 1.355067
-1.685724 -0.276533 0.463310
-0.438563 -0.298988 2.340578
-0.019551 -0.267127 3.216515
-1.685631 -0.279298 0.460687
-1.658210 -0.284331 0.461413
-1.592342 -0.295333 0.547131
-1.627831 -0.296020 0.411054
-1.618537 -0.305273 0.413736
-1.523528 -0.320730 0.581283
-1.548028 -0.318332 0.564667
-1.572985 -0.324983 0.540900
-1.696034 -0.281237 0.458897
-1.661589 -0.271971 0.469863
-1.634107 -0.308620 0.505228
-0.532979 -0.304132 0.854788
-1.628693 -0.315088 0.390148
-1.685156 -0.301271 0.456329
-1.589674 -0.326106 0.393447
-0.063133 0.319917 1.328188
-0.170499 0.109209 1.304083
-1.574415 -0.257621 0.492277
0.423736 -0.154371 1.246242
0.494913 -0.452015 1.908320
-1.706156 -0.283916 0.458309
0.625558 0.329285 1.560935
-0.047335 0.273199 1.700437
-1.635336 -0.307544 0.400479
-1.632369 -0.307685 0.400221
-1.637875 -0.278430 0.418099
-1.298191 -0.124915 0.645634
0.053972 0.222397 1.147164
0.225369 0.270517 1.211760
-1.356874 -0.163034 0.510508
-1.692621 -0.300679 0.433045
-1.619690 -0.302824 0.407206
-0.081871 0.227078 0.937439
-0.220949 -0.014345 0.914902
-0.165665 0.103831 0.975049
-1.640182 -0.279720 0.420494
-1.610991 -0.306221 0.389792
-1.606415 -0.323130 0.421086
-1.615739 -0.279716 0.435715
-1.603220 -0.323611 0.421854
-1.689893 -0.277290 0.467905
-1.684002 -0.279579 0.461171
0.421703 0.386052 1.239076
-0.053671 -0.287786 1.582612
-1.640724 -0.278232 0.417659
-1.625314 -0.266274 0.407415
-1.610319 -0.317129 0.412213
-1.616409 -0.271898 0.416111
0.445969 -0.366201 1.940986
-0.150488 0.151644 1.296099
-1.671252 -0.279408 0.462096
-1.672768 -0.279463 0.461951
-1.669261 -0.278558 0.462793
-1.401545 -0.197782 0.576128
-1.527359 -0.249157 0.504560
-0.289179 -0.039448 1.016930
-0.418784 0.294101 1.429200
0.372235 -0.337349 1.381033
0.226243 0.180808 1.210894
-1.103179 -0.240200 0.668355
-0.089764 -0.273077 1.550125
-1.611664 -0.316801 0.392803
-0.948993 -0.088709 0.799526
-1.561688 -0.264835 0.483673
-1.618670 -0.309189 0.402272
-1.615602 -0.309749 0.401870
-1.608294 -0.317262 0.390885
-1.589985 -0.322447 0.390197
-1.600827 -0.319767 0.388462
-1.680598 -0.275350 0.464335
-1.473821 -0.343385 0.606099
-1.606730 -0.311525 0.530610
-1.696716 -0.286517 0.459904
-1.705594 -0.283937 0.458329
-1.570996 -0.252139 0.486766
-1.621018 -0.302581 0.407977
-1.614574 -0.279834 0.436239
-1.510187 -0.244930 0.511642
-1.563120 -0.243566 0.494393
-1.494038 -0.277325 0.499403
-0.136270 0.130012 1.264856
-1.679249 -0.280806 0.460647
0.397929 -0.152290 1.232382
-1.691373 -0.281772 0.459079
-1.403291 -0.199950 0.552203
0.030277 0.085480 1.143244
-1.606339 -0.323586 0.421251
-1.539674 -0.299379 0.484664
-1.605400 -0.323626 0.421392
-0.921852 -0.049939 0.860261
-0.222938 0.071970 1.371193
-0.063474 0.110532 1.470377
0.273946 0.270053 1.575291
-1.615319 -0.305241 0.390391
-1.605937 -0.321050 0.392276
-1.611542 -0.317357 0.412692
-1.616649 -0.308590 0.412756
-1.691486 -0.281804 0.459124
0.220322 0.273365 2.009018
-1.609125 -0.306374 0.389746
-1.611044 -0.310877 0.400553
-1.618714 -0.302718 0.407275
-1.685534 -0.280644 0.460165
-0.163366 -0.170245 1.322727
-1.624305 -0.302834 0.409160
-1.423564 -0.197029 0.540890
-1.619685 -0.305519 0.413410
-1.622637 -0.267736 0.409811
-1.589006 -0.259231 0.411399
-1.609801 -0.307358 0.397805
-1.614017 -0.306813 0.397118
-1.577978 -0.313267 0.404840
-1.616769 -0.314293 0.408944
-1.608510 -0.322993 0.406946
-1.602226 -0.324543 0.396744
-1.605498 -0.318337 0.392177
-1.617211 -0.279064 0.436001
-1.705818 -0.283943 0.458338
-1.641016 -0.279393 0.420341
0.186101 -0.243817 1.113673
-1.682222 -0.276107 0.464807
-1.698984 -0.286983 0.465898
-1.691900 -0.278256 0.461627
-0.254055 0.097567 1.269325
-1.505714 -0.312680 0.535999
0.080602 0.189717 1.368382
-1.552447 -0.289669 0.532053
-1.522133 -0.333724 0.575070
-1.513065 -0.334865 0.580858
-1.660241 -0.271099 0.470866
-1.660542 -0.277863 0.463593
-0.105321 0.102610 1.193497
-1.710291 -0.283864 0.464552
9.891926 2.030796 11.240958
-1.467940 -0.245006 0.526072
-1.602000 -0.247602 0.483139
-1.322371 -0.274260 0.561697
-1.682446 -0.280141 0.484195
-1.560533 -0.326908 0.549274
0.380986 -0.314353 1.346680
-0.285944 0.091598 1.043620
-0.203598 0.107936 1.254729
-1.672688 -0.273364 0.470066
-1.677462 -0.280195 0.478624
-1.693595 -0.286792 0.459940
-1.540012 -0.249939 0.501800
-1.546457 -0.331039 0.556912
-1.651282 -0.280023 0.492086
-0.152460 0.053097 1.004289
-1.258293 -0.213068 0.613257
-1.560290 -0.271758 0.480851
-1.450726 -0.242365 0.532378
-0.978948 -0.072784 0.788114
-1.688227 -0.276178 0.467129
0.067295 0.232695 1.592598
-0.015863 0.121150 1.502624
0.375681 0.059490 1.260116
0.218531 0.104601 1.170679
-1.515351 -0.244669 0.508781
-1.709832 -0.283906 0.465200
-1.573816 -0.252911 0.486195
-1.551273 -0.287735 0.484804
-1.597730 -0.242902 0.485678
-1.597258 -0.245597 0.485136
-1.630482 -0.296526 0.412460
-1.598796 -0.269994 0.545010
-1.703987 -0.282208 0.457508
-1.559646 -0.280005 0.478582
-1.683632 -0.280520 0.483227
-0.143880 0.116406 1.331367
0.272771 0.212634 1.651203
-0.704076 0.016215 1.088842
-1.601541 -0.324977 0.421447
-1.610334 -0.317413 0.412547
-1.612018 -0.316832 0.411869
-1.191181 -0.084517 0.711262
-1.399520 -0.243244 0.739686
-1.444374 -0.249974 0.696186
-1.603963 -0.310801 0.401797
-0.157338 0.163253 1.450744
-1.469183 -0.245309 0.525505
0.179924 0.172861 1.575137
-1.618065 -0.305399 0.413718
-1.433733 -0.207534 0.672509
-0.622791 -0.004357 1.112222
-0.607468 0.053803 1.032296
-0.500555 0.073056 1.081950
-1.710153 -0.284102 0.464318
-1.567977 -0.272938 0.478055
-1.572169 -0.248837 0.491292
-1.611612 -0.251069 0.470056
-1.580131 -0.243355 0.488879
-1.507159 -0.289227 0.557658
-1.486514 -0.250197 0.521122
-1.553820 -0.283437 0.485703
-1.577188 -0.279793 0.473788
-1.625212 -0.315946 0.412098
-1.696289 -0.281345 0.458783
-1.684759 -0.283431 0.459511
-1.696491 -0.281341 0.458783
-1.481181 -0.329572 0.565868
-1.576201 -0.236219 0.494839
-1.214772 -0.351522 0.702839
-0.957221 -0.239911 0.873769
-1.668147 -0.272094 0.472806
-1.181294 -0.335762 0.849486
-1.614194 -0.309516 0.520397
-1.610083 -0.322596 0.395054
-1.567912 -0.236029 0.496951
-1.710289 -0.283932 0.464440
-1.699883 -0.281567 0.458532
-1.677240 -0.274461 0.469222
2.385924 0.810977 4.285698
-1.666792 -0.303084 0.485329
-1.567558 -0.275207 0.477989
-1.563200 -0.261915 0.484397
-1.691607 -0.281156 0.459821
-1.681897 -0.288929 0.461474
-1.690832 -0.288470 0.461196
-1.694291 -0.286703 0.459907
-1.710024 -0.283969 0.464802
-1.683796 -0.275098 0.468243
-1.427321 -0.268201 0.517141
-0.194059 -0.296214 0.928667
-1.352604 -0.182466 0.580448
-1.603615 -0.318488 0.393474
-1.322626 -0.178120 0.619136
-1.552748 -0.281131 0.481510
-1.587740 -0.299645 0.472457
-1.582321 -0.324604 0.530243
-1.612326 -0.251200 0.470002
-1.698391 -0.278866 0.463355
-1.602656 -0.260425 0.490926
-1.709685 -0.284170 0.464767
-1.709940 -0.283963 0.464895
-1.564508 -0.259010 0.485472
-1.435608 -0.208290 0.556629
-1.531778 -0.333697 0.563621
-1.545630 -0.318082 0.566243
-1.587264 -0.262363 0.479684
-1.696484 -0.281380 0.458753
-0.597985 0.037736 1.092091
-1.676867 -0.282589 0.460188
0.211609 0.069491 1.136463
0.017469 0.026899 1.149519
0.174154 0.074151 1.119411
-1.688476 -0.281460 0.459573
-1.703024 -0.285612 0.459252
-1.696448 -0.278040 0.464385
-1.694675 -0.286624 0.459851
-1.693980 -0.287055 0.460241
-1.569587 -0.259799 0.484476
-1.508496 -0.245564 0.511713
-1.687323 -0.276826 0.462980
-1.660888 -0.272854 0.467349
-1.214420 -0.181698 2.697403
-1.708665 -0.284093 0.466275
-0.771623 -0.016432 1.032251
-0.074543 0.264547 0.786660
-0.156607 0.111191 1.389988
-1.685365 -0.281370 0.459789
-1.566593 -0.270773 0.480656
-1.563076 -0.244206 0.494318
0.050487 0.129578 1.166033
