0.381815 0.035421 1.260214
0.161010 -0.426974 1.145186
0.195680 -0.269668 1.039484
0.272136 -0.349663 1.346759
0.102620 -0.273368 1.015590
0.184207 -0.233740 1.291752
0.359853 -0.048287 1.201444
0.270388 -0.344535 1.363541
-0.072026 -0.103783 1.394111
0.195538 0.000828 1.026808
0.370691 0.057236 1.186251
-0.075640 -0.389217 1.069870
0.254662 -0.308278 1.084319
0.194499 0.005510 1.024587
0.300546 -0.012569 1.109611
0.346418 -0.053275 1.188195
-0.056090 -0.390051 1.094070
0.151494 -0.073237 1.239065
-0.437093 0.078266 1.003298
0.013525 -0.074504 1.574976
0.223524 -0.218571 1.405969
0.117851 -0.176414 1.032151
0.064827 -0.089599 1.149765
0.203797 -0.397024 1.028581
0.002367 -0.453038 1.363563
-0.110410 0.099217 1.171736
-0.064243 0.092040 2.396074
-0.101093 -0.398134 1.182337
0.213329 -0.470473 1.335824
0.298037 -0.349901 1.271946
0.243161 -0.361578 1.051497
0.182100 -0.401920 1.069170
0.176133 -0.292223 1.020804
0.299158 -0.332262 1.265766
0.351341 0.173907 1.224138
0.086903 0.020027 1.067863
0.111058 -0.245812 1.068108
0.233687 -0.022497 1.044898
0.309342 0.015740 1.113570
-0.825580 0.305894 1.029837
0.351406 0.138948 1.440833
-0.832067 0.311271 1.029038
0.172229 0.058824 1.042933
0.088772 0.014126 1.034640
0.073873 0.013544 1.051431
0.194658 -0.036259 1.037046
-0.095584 -0.132145 1.781419
0.321605 -0.311645 1.206615
0.275491 -0.316947 1.205052
0.151872 -0.173292 1.467474
0.357052 -0.065154 1.151100
0.343211 -0.114299 1.336013
-0.072347 -0.321543 1.023232
0.159449 -0.389566 1.076267
0.217145 -0.061424 1.344048
0.179897 -0.188792 1.064262
0.317007 -0.152024 1.120787
-0.249931 0.027793 2.018835
0.308867 -0.473168 1.278138
0.174391 -0.217576 0.988732
0.291660 -0.343060 1.306524
-0.025528 0.039225 1.057925
-0.130936 -0.015150 1.397680
0.280203 0.279740 1.135118
0.110810 0.088327 1.045828
0.216250 -0.457619 1.305025
0.140571 -0.116345 1.005559
0.124807 -0.229986 0.972056
0.081760 -0.359455 1.002767
0.222755 -0.454559 1.310435
0.385596 -0.156356 1.321066
0.349187 -0.148206 1.361308
-0.413100 0.130898 2.204745
0.342444 -0.152063 1.073003
-0.090351 -0.063372 1.872768
0.170758 -0.396204 1.070348
0.366122 -0.066051 1.176744
-0.588266 0.416341 0.441416
0.429695 -0.332089 1.334976
0.136953 -0.136779 1.360205
0.136146 -0.096805 1.288920
0.348766 -0.095658 1.338715
0.168724 -0.110669 1.345861
0.230488 -0.019222 1.046273
0.150523 -0.453356 1.304419
0.050499 -0.265708 1.002483
0.059589 0.021027 1.043879
-0.015971 -0.285833 1.059608
0.283465 -0.344702 1.319323
0.181360 -0.389038 1.031917
0.167089 -0.455772 1.268978
0.297853 -0.309740 1.180517
0.224701 -0.366900 1.035251
0.178938 -0.472595 1.368766
0.371960 -0.145040 1.341096
0.379463 -0.101519 1.171030
0.197432 0.032547 1.032332
0.374582 -0.110824 1.268129
0.294121 -0.346887 1.297763
0.279359 -0.313556 1.154997
0.308729 -0.355224 1.276126
0.302245 -0.343717 1.266145
0.091595 -0.072422 1.136492
0.099991 -0.069392 1.044424
0.345084 0.019011 1.146305
-0.091815 0.131614 1.169631
-0.136623 0.021028 1.198176
-0.057450 -0.129634 1.054710
-0.136925 0.099511 1.206685
0.042336 -0.252480 1.188415
0.087756 -0.406986 1.086162
0.216463 0.151088 1.098445
0.151131 -0.463151 1.307821
0.221888 -0.452513 1.313194
0.119226 -0.167178 1.470153
0.164491 -0.453822 1.271782
0.145173 -0.124461 1.345499
0.261774 -0.134742 1.419092
0.376924 0.019796 1.214464
0.258769 -0.249887 1.025047
0.374183 0.043751 1.266797
0.341828 -0.123465 1.319535
0.206524 0.186592 1.071842
-0.451680 0.157897 0.808822
0.273767 -0.441684 1.317039
-0.176818 0.031736 2.090909
0.190119 -0.148529 0.993633
0.257586 -0.374319 1.058562
0.300044 -0.441600 1.223215
0.179538 0.266712 1.108909
0.308648 -0.338103 1.266744
0.049373 -0.403321 1.052344
0.362493 0.045816 1.199685
0.375201 0.005348 1.184796
0.081902 -0.457462 1.397003
-0.255580 0.038531 2.051602
0.251297 -0.342595 1.368023
0.276814 -0.314397 1.156945
0.361094 0.055398 1.180424
0.079280 -0.146251 1.498218
0.238178 -0.369406 1.043336
0.354365 -0.062239 1.168723
0.359439 -0.064631 1.179887
0.292281 -0.343438 1.344172
0.352168 -0.153507 1.355419
0.293253 -0.333198 1.286527
0.129686 -0.462277 1.240578
0.141586 -0.282009 0.992223
0.127825 -0.387438 1.054525
0.022698 -0.389472 1.021171
0.032525 -0.239248 0.988431
0.187550 -0.448675 1.182163
0.238032 -0.511314 1.305487
0.255836 -0.417115 1.099136
0.114813 -0.026508 1.005466
0.184786 -0.541019 1.275247
0.303956 -0.440303 1.218332
0.303335 -0.419482 1.232385
0.375100 -0.149390 1.344812
0.371791 -0.147887 1.348521
0.278570 -0.333191 1.250408
0.322971 -0.100224 1.255587
-0.250051 0.045610 2.028458
-0.029041 -0.271826 1.068075
0.004207 -0.212471 1.032791
0.304752 -0.229215 1.148298
0.256173 -0.338831 1.336675
0.249450 0.014205 1.066815
0.281277 -0.010363 1.087623
0.264595 -0.284299 1.077440
0.300356 -0.130092 1.345301
0.127220 -0.273285 1.010371
0.369737 -0.097425 1.207778
0.181278 -0.023775 1.301082
0.228955 -0.058817 1.236483
-0.092155 -0.310151 1.086207
0.152089 -0.279763 1.033429
0.117420 -0.124538 1.412931
0.136286 -0.288008 1.000355
0.133581 -0.264784 1.005032
0.155054 -0.258613 0.988342
0.300957 -0.447926 1.222796
0.100293 -0.436963 1.360441
0.118149 -0.018997 1.237625
0.116045 -0.123713 1.371471
0.243394 -0.219877 1.490582
0.415993 0.019139 1.163504
0.337037 0.103554 1.153943
0.229121 -0.392494 1.092798
0.079849 -0.456944 1.397816
0.244821 -0.271128 1.385967
0.210262 -0.400778 1.018579
0.279105 -0.355082 1.322960
0.261629 -0.088220 1.079306
0.233531 -0.029514 1.215311
0.276064 -0.136538 1.045697
0.337071 -0.247721 1.198139
0.116320 -0.168740 1.040148
0.164068 -0.295547 1.419296
0.360489 -0.087460 1.208293
0.204427 -0.464936 1.247705
0.175552 -0.397589 1.162473
0.206930 -0.247167 1.519996
0.224842 0.010826 1.567259
-0.072796 -0.381006 1.099688
0.256902 -0.454789 1.315639
0.228407 -0.204081 1.346429
0.123658 -0.447032 1.220203
0.236386 -0.275427 1.071077
0.355037 -0.152906 1.352965
0.055083 -0.408040 1.077185
-0.082909 -0.410117 1.171659
0.072040 -0.244294 0.996388
0.177777 -0.092219 1.066650
0.189038 -0.463928 1.217641
0.118066 -0.445325 1.220044
0.223507 -0.113586 1.052518
0.249375 0.181317 1.463063
0.149389 -0.106812 1.283730
0.365633 0.002880 1.199161
0.385026 0.050390 1.179840
0.341988 -0.335809 1.203681
0.134176 -0.067564 1.298121
0.152858 -0.082179 1.285961
0.220381 -0.188696 1.111559
0.253099 -0.426438 1.353290
0.108990 -0.039255 1.261893
0.146940 -0.150841 1.459602
0.394734 0.047391 1.172120
0.183468 -0.187578 1.393836
0.152641 -0.430459 1.172251
-1.031451 0.607030 0.539573
0.173258 -0.113835 1.337239
0.089489 -0.400688 1.064289
-0.242110 0.029570 2.030225
0.220321 -0.249622 1.483479
-0.020587 -0.255365 1.010311
0.056312 -0.240235 0.994563
0.160011 -0.452526 1.132337
0.131853 -0.445666 1.246792
0.129163 -0.455012 1.248510
0.109882 -0.322070 0.972300
0.163881 -0.243393 0.986328
0.164380 0.103243 1.015349
0.153269 -0.229955 0.988878
-0.015380 -0.245269 1.034077
-0.030711 -0.278732 1.051885
-0.050831 -0.242664 1.080048
0.142597 -0.262069 0.994026
0.142642 -0.247717 1.002689
0.116367 -0.464689 1.205391
0.369745 -0.068516 1.140007
0.317390 -0.270304 1.116567
0.070050 -0.096246 1.000447
0.389362 -0.095684 1.265185
0.315050 -0.339063 1.232274
0.357758 -0.065281 1.151433
0.185494 -0.029575 1.018351
0.162636 -0.400052 1.076821
0.103517 -0.377179 0.996090
0.014889 -0.128901 1.430929
-0.578887 0.067426 1.441460
0.193539 -0.025923 1.264914
0.305742 -0.323445 1.218223
0.022988 -0.386005 1.012213
0.119785 -0.438737 1.212998
0.247910 0.013170 1.067111
0.371083 0.046404 1.186861
0.140324 -0.395124 1.000461
0.072863 -0.251092 1.003610
-0.081111 -0.300499 1.155212
-0.069096 -0.281589 1.111896
-0.114597 0.117934 1.190569
0.136968 0.151759 1.055393
0.166019 0.218497 1.082069
0.213992 -0.056052 1.015739
0.227507 0.006863 1.052155
0.095391 -0.458145 1.210527
0.357612 -0.103825 1.331013
0.192355 -0.272157 0.979773
0.293985 -0.336110 1.296293
0.100647 -0.156290 1.485635
0.261854 -0.358973 1.374605
0.308502 -0.331144 1.405847
0.261880 -0.297504 1.108262
0.155065 -0.459594 1.282032
0.259693 -0.427848 1.131871
0.180291 -0.434028 1.183979
0.343730 -0.102683 1.343043
0.220564 -0.119757 1.243616
0.167156 -0.392039 1.073238
0.311565 -0.318413 1.250176
0.316600 -0.309956 1.193770
0.139553 -0.390734 1.008574
0.278133 -0.442253 1.313259
0.220949 -0.204806 1.507577
0.166092 -0.136218 1.376008
-0.022093 0.058087 1.405639
0.223667 -0.053546 1.044977
-0.125752 -0.013109 1.074051
0.174522 0.047222 1.044403
0.349320 0.098707 1.201595
-0.070200 0.039007 1.108485
-0.153824 -0.141838 1.190112
0.302396 -0.340358 1.278590
0.255191 -0.026412 1.063909
0.173534 -0.029609 1.190551
0.318699 -0.328217 1.250793
0.343356 -0.123185 1.241464
0.364200 0.054573 1.179976
0.200937 -0.354167 1.019605
0.376723 -0.012303 1.317790
0.368134 -0.093336 1.262066
0.288206 -0.047300 1.120932
0.125331 -0.172932 1.037416
0.181021 -0.160039 1.263443
-0.128755 0.087915 1.289594
0.019165 0.002408 1.040190
-0.111464 0.099700 2.341261
0.257571 -0.445350 1.192332
0.012578 -0.263384 1.034735
0.265914 -0.131879 1.063258
-0.002552 0.009677 1.042694
0.161431 0.001883 1.029141
0.036664 -0.007358 1.030794
-0.144801 0.180962 1.276776
0.134645 -0.265907 1.017666
-0.951287 0.534320 1.006579
0.388884 0.006540 1.211774
0.344658 -0.112687 1.351318
0.265184 0.016434 1.112221
0.231837 -0.223482 1.109522
0.373377 0.037879 1.207188
0.315782 0.131513 1.163012
0.195195 -0.245642 1.530303
0.271180 -0.223516 1.097625
0.260605 -0.375992 1.057419
0.060813 -0.292991 1.006284
0.269575 -0.114997 1.365606
0.298695 -0.303930 1.219148
0.295684 -0.340077 1.323842
0.270255 -0.349196 1.347836
0.144814 -0.183454 1.454274
0.128394 -0.134683 1.404420
0.233642 0.029638 1.057567
0.216618 -0.068455 1.200483
-0.014901 0.079795 1.320283
0.230847 0.206064 1.477495
0.213922 -0.103493 1.218514
0.249535 0.177618 1.462159
0.264169 -0.001198 1.094877
0.295773 -0.202873 1.440205
0.053920 -0.399806 1.051882
0.299008 -0.323192 1.187588
0.210730 -0.410117 1.099817
0.005179 -0.269801 1.036366
0.367658 -0.092654 1.179665
0.304416 -0.327642 1.211859
0.299868 -0.347776 1.294182
0.224294 -0.429219 1.378799
0.180167 -0.294524 1.016185
0.211863 -0.457411 1.377355
0.105835 -0.450253 1.225157
0.091053 -0.273485 0.978928
0.090061 -0.256121 0.984053
0.017572 -0.396328 1.011554
0.016467 -0.372280 1.022253
0.194753 -0.470406 1.318673
0.070479 -0.435564 1.171028
0.196950 -0.531219 1.271381
0.037222 -0.413234 1.093413
-0.028513 -0.327874 1.015259
-0.025521 -0.414071 1.116685
0.200646 -0.238337 1.530727
0.137707 -0.175185 1.438308
0.379395 -0.022730 1.313904
0.301525 -0.074506 1.097327
0.269794 -0.347676 1.371012
-0.146180 -0.010888 1.361088
-0.005627 -0.226223 1.054235
0.022990 -0.393970 1.063862
0.145321 -0.469575 1.316715
0.031592 -0.012177 1.021781
0.082810 0.062320 1.021466
0.138418 -0.467753 1.332578
0.062857 0.165645 1.076012
-0.115068 -0.286384 1.048788
0.031688 -0.384447 1.043335
-0.140288 0.001040 1.179170
-0.087892 -0.364590 1.317204
0.082746 0.001152 1.032194
0.370840 0.028522 1.226446
0.079647 0.029170 1.036220
0.090417 -0.011453 1.020685
-0.119460 -0.096037 1.407960
0.367963 -0.093152 1.157479
-0.045471 -0.307660 1.102907
-0.119201 0.143768 1.449353
-0.110756 -0.289847 1.168935
-0.114257 -0.103345 1.136530
-0.000051 -0.389719 1.007797
0.430391 -0.123376 1.531595
0.041426 -0.001350 1.035447
-0.143652 -0.109395 1.170596
0.085148 0.058261 1.036767
-0.167408 -0.236346 1.303937
0.497055 0.475922 1.293848
0.198008 -0.135746 1.009160
0.300095 -0.322349 1.188296
0.208149 -0.038289 1.049421
0.149435 -0.285604 1.012741
0.364747 -0.127374 1.260290
0.376055 -0.093545 1.372715
0.188678 -0.460805 1.323193
0.108684 -0.386468 0.999886
0.223414 -0.386816 1.036327
0.245240 -0.265573 1.188635
0.357182 -0.099246 1.151983
0.224079 -0.405630 1.018933
0.186876 -0.118746 0.995768
0.328894 -0.077340 1.120158
0.199568 -0.044999 1.162238
0.234998 -0.416368 1.099529
0.180204 -0.108947 0.995936
0.203677 -0.256489 1.051368
0.361803 -0.044444 1.154732
0.155153 -0.131370 1.368002
0.263795 -0.357050 1.342888
0.357686 -0.125986 1.267693
0.094456 -0.243978 0.981958
0.305459 -0.443315 1.216201
-0.030757 -0.258680 1.011112
-0.133447 -0.303818 1.272812
0.301272 -0.465948 1.193780
0.221296 -0.291093 1.085584
0.325928 -0.318638 1.233479
0.292236 -0.359588 1.309436
0.363019 -0.162288 1.345696
0.085032 -0.059360 1.012379
0.148863 -0.128901 1.344562
0.231805 -0.457879 1.258984
0.190338 -0.036650 1.183362
0.161904 -0.094734 1.001826
0.027086 0.019791 1.074318
0.284312 -0.265064 1.441077
0.188770 0.258380 1.103801
0.261236 -0.408144 1.095927
0.218045 0.070005 1.090675
0.258321 -0.431259 1.183530
-0.172054 0.021919 2.073434
0.152605 -0.209865 1.457286
-0.040259 -0.273689 1.086233
-0.149084 0.018007 1.226001
-0.031732 -0.005906 1.055451
0.299382 -0.341545 1.242138
0.290517 -0.357916 1.310030
0.108458 -0.254147 1.044733
0.135888 0.154686 1.059447
-0.010387 -0.268577 1.053867
0.006640 -0.279044 1.044045
0.125283 -0.002497 1.023989
0.344028 -0.173619 1.360585
0.362046 -0.072352 1.128074
-0.058902 -0.185156 1.038222
-0.034047 -0.258389 1.050596
-0.092027 -0.275762 1.105303
0.100631 -0.262976 1.002534
0.083357 -0.241031 0.999124
-0.081510 -0.263949 1.057813
0.196691 -0.472521 1.376394
0.053942 -0.341300 1.023637
0.114033 -0.358289 1.026420
0.176053 -0.331958 0.967717
0.384546 0.005359 1.311537
0.049499 -0.401101 1.061305
-0.038183 0.010391 1.192874
0.268235 -0.476437 1.300474
0.165377 -0.458190 1.264706
0.073527 0.015164 1.028381
0.012982 0.020032 1.047138
0.015249 -0.268108 1.032945
-0.156117 -0.149464 1.179813
0.003549 -0.257864 1.030515
0.085774 -0.006381 1.024576
0.062322 -0.353628 1.043758
0.059044 0.091847 1.064864
0.082570 -0.249762 0.982227
-0.104264 -0.396186 1.178791
-0.100974 -0.285645 1.139580
-0.070805 0.038008 1.103816
-0.020808 -0.269676 1.047748
-0.026258 -0.411605 1.116399
-0.019753 -0.282351 1.085506
-0.013306 0.029636 1.051160
-0.012482 0.027755 1.049589
0.169454 -0.264540 1.022832
0.124771 0.021932 1.039112
-0.033525 -0.241453 1.118160
0.169148 -0.219199 0.990414
-0.019684 0.211258 1.111863
0.094534 -0.287322 1.016066
0.184496 -0.436382 1.184098
0.265979 -0.431651 1.266005
0.248527 -0.405933 1.113494
0.308250 -0.323584 1.226240
0.067056 -0.473412 1.390924
0.018186 -0.387919 1.015490
0.159622 -0.293039 1.013428
0.309278 -0.339816 1.240473
0.196066 0.010149 1.027532
0.373596 -0.002472 1.277053
0.121176 -0.165930 1.464032
0.365616 0.073153 1.188094
0.363306 -0.072491 1.147674
0.364209 -0.163268 1.344685
0.254109 -0.424940 1.078316
-0.010058 -0.399544 1.086105
0.282923 -0.320486 1.201170
0.204141 -0.256141 1.052333
0.305071 -0.420100 1.220835
0.161289 -0.077070 1.239372
0.405478 -0.063836 1.331069
0.249170 -0.299603 1.072562
0.289389 -0.335189 1.260300
0.134154 -0.286147 1.046629
0.266384 -0.423113 1.125304
0.054831 -0.379787 1.005139
0.211061 -0.130913 0.988458
0.299710 -0.205921 1.439217
0.110398 -0.430073 1.171969
0.220327 -0.456152 1.283638
0.169737 -0.394220 1.073030
0.338370 -0.107793 1.361337
0.273662 -0.290760 1.068786
0.163150 0.289627 1.115709
0.207228 -0.292738 1.011740
0.317966 -0.331265 1.272220
0.162931 -0.077828 1.306197
0.097074 -0.154873 1.488318
0.335715 -0.083304 1.349423
0.259359 -0.333321 1.344984
0.253538 -0.077931 1.041805
0.333931 -0.087698 1.250444
0.132075 -0.457168 1.260219
0.290103 -0.109434 1.087401
0.295349 -0.158329 1.391180
0.375614 -0.015421 1.317680
0.164479 -0.081932 1.307428
0.388104 -0.103221 1.294472
0.249724 -0.224344 1.407872
0.287122 -0.044422 1.116440
0.279080 -0.334664 1.285069
0.378924 -0.349239 1.379042
0.206740 -0.383430 1.099408
0.287851 -0.346944 1.326274
0.306057 -0.419281 1.229289
0.370802 -0.131263 1.325285
0.020702 -0.102928 1.051721
0.209587 -0.241561 1.498994
-0.079911 -0.044121 1.356449
0.308696 -0.342324 1.248471
0.177102 -0.221443 1.522188
0.182211 -0.459505 1.341887
0.057209 -0.328011 1.129057
0.119779 -0.090524 1.349692
0.194649 -0.274103 1.242991
0.281034 0.180826 1.179880
0.295487 -0.336339 1.257593
0.415856 -0.366039 1.153709
0.239775 -0.420464 1.141312
0.184127 -0.464761 1.324863
0.298332 0.123607 1.295890
0.168887 -0.393134 1.073643
-0.066607 -0.382350 1.128461
0.003341 -0.221105 1.064677
0.191528 -0.436530 1.197925
0.106134 -0.294162 1.011546
-0.067891 -0.382716 1.127862
-0.104339 -0.015237 1.153616
0.082620 -0.263156 1.026634
0.899972 0.097411 1.480602
0.133778 -0.276117 1.039881
-0.108512 -0.321117 1.172481
0.342860 -0.027978 1.353920
0.151468 -0.451453 1.278967
0.276259 -0.171104 1.408976
0.241688 -0.167540 1.427449
0.107378 -0.377974 0.995581
0.057304 -0.262989 1.022013
0.303760 -0.314407 1.202882
0.207370 -0.061192 1.176235
0.129154 -0.187186 1.461129
0.353748 -0.110994 1.346910
0.329099 0.219003 1.430359
0.298268 -0.434684 1.225348
0.194916 0.200976 1.072740
0.021653 -0.129798 1.430553
0.205046 0.189290 1.069743
0.078915 -0.460349 1.397496
0.194498 0.036300 1.598772
0.200330 -0.391276 1.041239
0.303281 -0.333769 1.271095
0.109060 -0.400258 1.048127
0.362791 -0.069290 1.163943
0.054694 -0.398001 1.052636
0.232579 -0.062751 1.299546
0.143580 -0.196841 1.450403
0.289791 -0.262936 1.089935
0.205387 -0.452908 1.292077
-0.021843 -0.283040 1.084313
-0.061860 -0.289156 1.128958
0.175245 0.034508 1.029960
0.274936 -0.296497 1.107457
0.232834 -0.298261 1.227246
-0.047611 0.341359 1.292616
0.209284 -0.396441 1.038563
0.044951 -0.449042 1.274122
0.183359 -0.462791 1.324173
0.093729 -0.460821 1.380248
0.351074 -0.152878 1.355503
0.180792 -0.457881 1.343230
0.288471 -0.259722 1.102528
-0.094772 -0.408342 1.178964
0.288416 -0.248830 1.066968
-0.023549 -0.085973 1.330871
0.200671 -0.452249 1.290999
0.211015 0.023017 1.582145
0.300728 -0.300902 1.219047
0.280199 -0.315047 1.135353
0.339767 -0.347916 1.146517
0.276203 -0.437766 1.178563
0.245289 -0.228247 1.115795
0.189007 -0.271315 0.978994
0.083282 -0.251842 0.997712
0.354382 -0.134545 1.312428
0.424890 0.007458 1.157460
0.158514 -0.151146 1.337469
0.155567 -0.460221 1.307263
0.220249 -0.414217 1.146434
0.242187 -0.224152 1.126724
0.227794 0.007938 1.562496
0.223503 -0.397828 1.029727
-0.085030 -0.409920 1.173277
0.320289 -0.071258 1.111034
0.142189 -0.280205 1.448258
-0.143613 0.000996 2.032353
0.273865 -0.445718 1.340085
-0.202769 0.030681 2.066664
-0.019800 -0.415318 1.115345
0.074819 -0.475876 1.390658
0.066080 -0.402073 1.047084
0.185555 -0.226912 1.474434
0.178893 -0.143700 0.993744
0.363045 -0.110262 1.326279
0.249556 -0.423286 1.079465
0.078433 -0.454484 1.342072
0.042527 -0.274613 1.054281
0.168821 0.060277 1.106444
0.171791 -0.281424 1.012425
-0.006214 -0.226541 1.055418
0.168749 0.028007 1.030708
-0.028705 -0.267103 1.056308
-0.047578 -0.287128 1.092694
-0.138355 -0.031897 1.193359
0.076580 -0.473949 1.390033
-0.013580 0.119384 1.033954
-0.042335 -0.366073 1.086329
0.056473 -0.278091 1.034209
0.102164 -0.250482 0.992168
-0.019623 -0.016173 1.043809
-0.034690 0.079109 1.081024
0.233748 -0.379774 1.043905
0.061928 -0.011203 1.022904
-0.070624 -0.016712 1.092787
0.027554 -0.399773 1.061439
-0.033815 0.039349 1.061370
0.102808 -0.242670 1.038546
0.232526 0.002557 1.055454
-0.035022 0.051402 1.078794
0.019186 -0.252244 1.056103
0.375399 0.127055 1.410889
0.359069 0.009353 1.155815
0.366829 0.038589 1.198117
0.361464 -0.070487 1.150284
-0.224317 0.018392 2.013877
0.276649 -0.471948 1.285521
0.071827 -0.390954 1.092930
0.246561 -0.248528 1.427885
-0.078360 0.010074 2.105728
0.348987 0.013459 1.159811
0.078454 -0.426915 1.166057
0.244367 -0.475778 1.331627
0.023247 -0.396589 1.019260
0.110898 -0.249587 0.983570
0.229518 -0.275090 1.048333
0.061420 -0.248820 0.982081
0.117821 -0.401207 1.047638
-0.972516 0.462338 1.183139
0.340304 -0.231021 1.114791
0.068883 -0.414456 1.095377
0.089600 0.013043 1.031291
-0.098799 -0.417416 1.169760
0.187152 -0.345168 1.075985
0.213216 -0.408212 1.106652
0.151778 -0.430965 1.173408
0.279451 -0.357573 1.323742
0.209041 -0.258642 1.051447
0.204514 -0.130121 0.993640
0.308707 -0.349298 1.255807
0.262173 -0.347798 1.361406
0.143628 -0.112036 1.309995
0.267994 -0.309269 1.150098
0.178268 -0.434822 1.183922
0.170315 0.279074 1.110162
-0.106952 -0.033557 1.955502
0.259791 -0.406343 1.100574
0.163778 -0.461307 1.275851
0.153235 -0.451516 1.242049
-0.075389 -0.301132 1.198981
-0.096546 -0.017819 1.136686
-0.020878 0.020363 1.038874
-0.016759 -0.271034 1.062648
0.106470 0.050650 1.109751
0.229643 0.021350 1.100065
0.274334 -0.297109 1.082312
0.337528 -0.157357 1.268686
0.192445 -0.015030 1.015053
0.302100 -0.441677 1.217251
0.173341 0.009463 1.030257
0.165887 0.003406 1.036805
0.280345 -0.076410 1.041016
0.288189 -0.304761 1.159574
-0.039467 0.041938 1.153257
0.140891 -0.346240 0.998834
0.105887 -0.379697 0.994064
0.253063 0.028337 1.111309
0.042388 -0.354382 1.167419
0.216042 -0.307830 1.041664
0.161868 -0.424843 1.143002
-0.099708 0.104322 1.165645
0.050551 0.016643 1.036630
0.074543 -0.139653 1.477415
0.213103 -0.360380 1.045772
0.318901 -0.425158 1.213244
0.243590 -0.402323 1.113896
0.312311 -0.031650 1.092994
-0.197010 0.008886 2.016495
0.208504 -0.207282 1.514744
0.259102 -0.412675 1.152263
0.249597 -0.091042 1.394728
0.101617 -0.256182 1.020046
0.370753 0.045277 1.176873
0.260087 -0.007212 1.052758
0.375512 -0.057279 1.147957
-0.086933 -0.411034 1.174095
0.106980 -0.466073 1.339843
-0.007308 -0.154096 1.001787
0.232881 0.035269 1.058403
-0.114281 -0.090705 1.145490
0.050656 -0.412905 1.042531
0.266529 -0.406745 1.095205
0.278287 -0.474616 1.280935
-0.070513 -0.124016 1.393490
-0.117244 -0.032002 1.145823
0.259280 -0.458429 1.275621
-0.099655 0.000604 1.134306
-0.019638 -0.116970 1.032977
-0.021746 -0.121865 1.033290
0.211993 -0.303380 1.035616
0.068987 -0.471885 1.386191
0.794014 0.055445 1.378905
0.032270 0.017268 1.034836
0.270718 -0.413121 1.139577
0.095337 -0.286096 1.009975
-0.038708 -0.107962 1.034526
-0.035395 -0.133483 1.029438
-0.197007 0.026763 2.076392
0.149851 -0.456550 1.305490
0.182304 0.060697 1.099350
0.189336 0.033302 1.032051
0.162109 -0.460920 1.304501
0.150979 -0.281878 1.024604
-0.129509 -0.320724 1.263897
0.493453 0.181582 1.276451
0.190803 -0.431468 1.190374
0.346126 -0.253606 1.101816
0.059506 -0.415433 1.107745
0.116211 -0.441512 1.264141
0.250775 -0.387301 1.127339
0.153142 -0.430161 1.170948
0.056427 -0.373793 1.044247
0.103246 -0.172292 1.361830
0.231079 -0.415346 1.086686
0.283700 -0.284459 1.116948
0.283630 0.006788 1.095679
0.207947 -0.392969 1.036882
0.266846 -0.134064 1.053010
0.059422 0.092161 1.058170
0.228830 -0.280884 1.055598
0.154185 -0.233277 1.028165
-0.034854 0.307253 1.176677
0.204063 -0.047529 1.020831
0.260400 -0.433051 1.295403
0.257859 -0.437568 1.332171
0.573269 0.223376 1.347948
0.104632 -0.352633 1.104453
-0.033950 -0.296273 1.072184
0.212204 -0.347047 1.033036
-0.050021 -0.289230 1.125631
0.159709 -0.000211 1.026328
0.097574 -0.273085 1.029106
-0.148305 0.093983 1.187938
-0.133363 -0.146312 1.394121
-0.108277 0.102045 1.174282
0.027792 -0.382502 1.054329
-0.019524 0.018798 1.049221
0.186529 0.022424 1.027992
0.240276 -0.278043 1.072677
0.057456 0.019152 1.043098
-0.023272 -0.297106 1.075864
0.090425 -0.469077 1.346527
-0.014768 -0.292679 1.072970
0.349632 -0.159568 1.120089
-0.212978 0.015403 2.039908
0.161531 -0.385728 1.055744
0.110999 -0.261213 1.124512
0.174802 -0.262013 1.073241
-0.021017 -0.282327 1.078918
-0.135763 0.100630 1.200117
0.016860 0.026488 1.039992
-0.003197 -0.260034 1.055917
0.084463 0.056446 1.038715
0.214583 -0.444717 1.233766
-0.032669 -0.006139 1.054417
-0.072689 -0.299397 1.135701
0.007450 -0.294776 1.028799
-0.042146 -0.282441 1.119739
0.013004 -0.192379 1.345486
0.176862 0.017101 1.029151
0.088457 0.067747 1.023871
0.014445 0.238624 1.127036
0.283676 -0.163911 1.400893
0.137491 -0.449800 1.265487
0.357414 -0.136319 1.314133
0.228214 0.002864 1.051727
0.314527 -0.066353 1.124271
0.271247 -0.370116 1.350173
0.282516 -0.404982 1.096486
0.303959 -0.445117 1.231046
0.172486 0.012462 1.021279
0.155567 -0.002441 1.022173
0.052375 0.012624 1.030709
0.114851 -0.461966 1.285222
0.098446 -0.386376 0.997467
0.067634 0.011265 1.068426
-0.103354 -0.319946 1.223514
-0.080652 -0.314040 1.191812
-0.072081 -0.274903 1.108446
-0.131800 -0.097439 1.176674
-0.039416 -0.050548 1.050632
0.280348 -0.457040 1.299433
-0.006644 -0.451796 1.374110
0.268922 -0.360078 1.360044
0.251389 -0.300906 1.192113
0.237059 -0.402684 1.146658
0.255803 -0.409863 1.142504
0.067345 0.021284 1.039366
-0.043502 0.235819 1.178823
0.233804 0.000147 1.044941
0.159428 -0.425476 1.145200
0.184427 -0.455689 1.387754
0.091083 -0.462827 1.385140
-0.116512 -0.316507 1.189753
0.005789 -0.272972 1.054719
0.115853 -0.461408 1.284867
0.301417 -0.013947 1.111347
0.330847 -0.307563 1.195946
0.302050 -0.443825 1.233551
0.196807 -0.270640 1.038939
0.049179 -0.003305 1.030833
0.147546 0.024233 1.029873
0.182009 -0.269903 1.022236
-0.121132 -0.099794 1.136154
0.036056 -0.277434 1.043163
-0.075626 -0.388684 1.115344
0.202417 -0.045302 1.019052
0.070796 -0.018282 1.019695
0.119487 0.019257 1.039358
-0.086282 -0.287261 1.140257
0.120692 0.002193 1.038456
0.082788 -0.003300 1.030122
-0.099257 0.005745 1.163721
0.233137 -0.259010 1.264451
0.168912 -0.101959 1.297240
0.233692 0.004674 1.053982
0.198025 0.200777 1.072763
0.297921 0.024774 1.117270
0.138550 0.027244 1.038753
0.143069 -0.457177 1.223636
-0.055580 -0.286534 1.075908
-0.138572 -0.000854 1.176361
0.021256 -0.435198 1.210923
0.222944 -0.394798 1.033963
0.135412 -0.007610 1.023271
0.043318 -0.109211 1.504414
0.043103 0.013566 1.042374
0.028656 -0.120387 1.472351
0.125360 0.021708 1.058699
0.008001 -0.245350 1.038502
0.130239 -0.266817 1.017266
0.013276 -0.242748 1.041439
-0.239143 0.049449 2.103838
-0.243235 0.053365 2.115406
0.328101 -0.116326 1.323696
0.137907 -0.455244 1.218679
0.014864 -0.226729 1.105739
0.171625 -0.280898 1.053041
-0.049213 -0.276013 1.089768
0.227395 -0.099132 1.041698
-0.038596 -0.011776 1.060034
-0.095026 -0.292901 1.164636
0.159709 -0.281784 1.048700
-0.019681 -0.008954 1.040691
0.006612 -0.384750 1.024157
0.304513 -0.439034 1.216907
0.034611 0.015823 1.036372
0.146675 0.000413 1.023867
-0.023832 -0.118392 1.051202
0.901518 0.100159 1.485048
0.017406 -0.359413 1.025175
0.005230 -0.450199 1.365188
0.012156 -0.239003 1.172433
0.128314 -0.461224 1.308955
0.189968 -0.025059 1.018133
0.271236 -0.457186 1.286649
0.130609 -0.249215 0.990307
0.085585 0.069443 1.044347
0.094926 -0.284253 1.029835
-0.082757 -0.283482 1.114333
-0.094842 -0.292970 1.166536
0.204942 -0.047288 1.020119
0.044529 0.020148 1.044021
0.157774 -0.003576 1.013303
0.001918 -0.291438 1.019520
0.160574 0.038498 1.014731
0.002694 0.019983 1.049132
0.233427 0.056002 1.066301
-0.006979 0.202010 1.096380
0.243118 -0.271404 1.060485
0.275261 -0.300285 1.290504
0.126222 -0.275351 1.036066
0.175197 0.028366 1.036295
0.055496 -0.283897 1.029344
0.041732 0.012527 1.031559
0.209592 0.025053 1.042222
0.184020 -0.282652 1.026231
0.019268 0.292702 1.133677
0.238143 -0.229841 1.015473
0.015890 -0.356175 1.075741
-0.263752 0.057503 2.101004
-0.014132 -0.280535 1.066109
-0.099787 -0.420017 1.177006
-0.074773 -0.015064 1.113547
-0.074954 -0.405778 1.104503
0.143797 -0.276306 1.034753
0.026877 -0.139851 1.012189
-0.056981 -0.299091 1.105711
0.350203 -0.162171 1.215542
-0.086414 -0.302674 1.164799
0.063429 -0.005004 1.031231
-0.093763 0.113658 1.163258
0.289782 -0.332827 1.278785
0.030785 -0.406412 1.108806
0.102211 0.011705 1.026899
-0.096339 -0.141431 1.116007
0.318856 -0.167184 1.086250
0.027774 -0.457867 1.285126
0.085757 0.011858 1.028859
-0.100406 -0.021286 1.124969
-0.135794 0.050264 2.202879
0.039933 -0.213935 1.142305
-0.135371 0.022240 1.201938
-0.254541 0.045907 2.087587
-0.025677 -0.406701 1.122808
-0.005134 -0.359767 1.119354
-0.033007 -0.278847 1.112249
0.235468 -0.152990 1.018288
-0.123209 0.008509 1.171433
-0.121642 -0.397704 1.152792
0.003062 -0.281650 1.054563
-0.023699 0.038715 1.057448
-0.029999 -0.128301 1.032417
0.181264 -0.281994 1.041839
0.094540 -0.407556 1.045663
0.008701 -0.382491 1.020931
0.360563 -0.069726 1.147058
0.371078 -0.078742 1.143102
0.358821 -0.065958 1.150941
0.195830 -0.357923 1.041554
0.054478 -0.257769 1.022860
0.138063 -0.168920 0.981334
0.073516 -0.267673 1.018348
0.155414 -0.202612 1.010516
0.120265 -0.408191 1.037042
-0.029269 0.010115 1.045183
0.125841 -0.003314 1.022648
-0.041236 -0.240001 1.049200
-0.044817 -0.124839 1.047972
-0.095021 0.117232 1.159599
-0.092584 0.125673 1.171637
0.049387 0.018445 1.036825
-0.026720 -0.412126 1.119547
0.162889 0.018479 1.051799
-0.027494 -0.388498 1.126158
0.036170 -0.278425 1.034039
0.234395 -0.407527 1.177601
-0.161205 0.019625 2.069272
0.031409 -0.357900 1.019378
0.036390 -0.009312 1.029285
0.268271 -0.212709 1.150694
0.291685 -0.299551 1.107293
-0.030164 0.045265 1.067596
-0.010244 0.040360 1.057696
0.184187 0.017231 1.025386
0.233572 -0.217291 1.483239
-0.072316 -0.390114 1.102670
0.381322 0.097241 1.173392
-0.260229 0.123478 2.132035
0.198003 -0.438568 1.194206
0.157726 -0.284817 1.039804
0.146579 0.017801 1.039119
0.218085 -0.295252 1.068584
0.201047 -0.044343 1.014701
0.185662 -0.283857 1.050104
0.201486 -0.046382 1.018900
0.181156 -0.435038 1.183161
-0.023723 -0.016255 1.053279
-0.115837 0.098949 1.186245
0.125469 -0.004194 1.021839
0.016784 -0.268462 1.054494
-0.072224 -0.302793 1.120311
0.263572 -0.411911 1.085080
0.046820 -0.282389 1.037737
-0.101399 -0.416274 1.174175
0.074751 -0.467509 1.306194
0.074354 -0.444767 1.310392
0.169109 -0.270286 1.039305
-0.086237 0.210814 1.506462
-0.107101 -0.022284 1.138403
-0.133792 -0.031314 1.189301
-0.098437 0.108411 1.155465
-0.160729 -0.106775 1.458508
-0.150926 0.003015 1.330371
-0.149254 0.019277 1.295115
-0.026590 -0.262562 1.051016
-0.123103 -0.092155 1.195962
-0.072684 -0.404242 1.114819
0.063532 0.024830 1.051507
-0.028606 0.084202 1.085790
-0.070054 -0.293895 1.219420
-0.149435 0.028990 1.240704
0.040222 -0.286520 1.176805
0.033426 -0.000750 1.032168
0.098260 -0.466796 1.374863
0.240257 -0.443572 1.278614
-0.104889 -0.406809 1.248879
-0.100939 -0.352728 1.334578
-0.074655 -0.405254 1.106922
-0.001558 -0.448674 1.374620
-0.033394 -0.005991 1.067928
-0.037162 -0.046789 1.054791
0.352171 -0.183021 1.352032
0.097706 -0.463427 1.375777
0.060805 -0.370546 1.071275
-0.166230 -0.197642 1.074938
-0.046531 -0.273961 1.104599
-0.088229 -0.356206 1.314001
0.265353 -0.105222 1.060335
0.046268 -0.424814 1.155169
-0.086156 -0.408498 1.099328
-0.138201 -0.156768 1.368453
-0.138378 0.009513 1.366928
-0.157971 -0.078672 1.217216
0.082922 0.070463 1.039434
0.262319 -0.108734 1.059791
0.072735 -0.285880 1.034298
0.113878 0.027435 1.049820
-0.087701 -0.339171 1.287653
-0.000852 -0.262298 1.049927
0.282927 -0.132359 1.045436
0.115431 0.089286 1.050196
0.073605 -0.474493 1.390958
0.031820 0.160156 1.070824
0.147499 -0.424658 1.117693
-0.101232 0.031299 1.145498
0.061376 -0.006906 1.029291
-0.097726 -0.412908 1.177672
-0.040769 -0.237079 1.113689
0.069234 -0.204904 1.222300
0.007430 -0.388912 1.012691
-0.027580 -0.261598 1.059478
0.097458 -0.240484 1.022338
0.084323 -0.277041 1.016935
-0.041455 0.048986 1.072902
-0.038093 -0.049924 1.048593
-0.132061 0.046284 1.342783
-0.119142 -0.170139 1.380596
0.231332 0.006445 1.051670
0.138041 0.012256 1.033225
0.089291 -0.467730 1.341470
-0.093255 0.127680 1.166344
0.191130 0.080456 1.042680
0.317755 -0.406484 1.175123
-0.086879 -0.303212 1.145558
-0.090476 -0.303616 1.170089
0.048300 -0.403619 1.062374
0.133000 0.017307 1.027035
0.157977 -0.251749 0.974200
0.051323 -0.420857 1.102486
0.014838 -0.377525 1.021416
0.321142 -0.343497 1.241434
-0.124375 -0.171107 1.137504
0.066177 -0.411938 1.099944
0.294572 -0.323381 1.104398
0.025553 -0.400064 1.059717
0.147572 -0.248074 0.985515
0.047295 -0.357566 1.173172
0.334125 -0.167628 1.094175
-0.025219 -0.284858 1.053742
0.090919 -0.469979 1.340304
1.019832 0.097745 1.519521
-0.008272 -0.230230 1.043398
0.074420 -0.281133 1.036802
0.186069 -0.114758 0.999261
-0.112793 -0.289515 1.167039
-0.002640 -0.258658 1.042311
0.052436 -0.405280 1.068332
-0.083071 0.039433 1.144643
-0.136470 -0.157586 1.372465
-0.114761 0.098770 1.190822
0.050008 -0.361149 1.178095
0.275536 -0.288869 1.224624
-0.106564 -0.308866 1.236781
0.099801 -0.249674 1.012287
-0.145106 0.175975 1.266226
0.195607 -0.029569 1.021549
0.085326 0.058259 1.042026
-0.022010 0.036284 1.058977
-0.027633 -0.265897 1.046547
-0.104164 -0.404726 1.208573
0.142514 0.162077 1.064229
0.201279 0.036825 1.047091
0.077312 -0.409178 1.094302
-0.088654 -0.418157 1.189867
-0.094818 0.168256 1.493494
0.251666 -0.391462 1.081678
0.383441 -0.080120 1.573890
-0.115733 -0.001671 1.165584
-0.071067 0.020514 1.041242
0.092390 -0.250184 1.001263
-0.123461 -0.170623 1.134895
-0.102885 -0.319604 1.155016
0.100214 0.320499 1.224715
0.014763 -0.254579 1.047858
0.332905 -0.317562 1.178853
0.168301 -0.215860 0.990890
0.338745 -0.277677 1.237220
0.045234 -0.378408 1.013322
0.281224 -0.453549 1.301508
0.126131 -0.354006 1.011552
0.286752 -0.412467 1.137306
0.021442 -0.253425 1.031616
-0.052852 -0.299676 1.070886
0.165061 -0.459829 1.302508
0.330339 -0.226002 1.276109
0.101663 -0.382797 1.003545
-0.077675 -0.300384 1.096750
0.256766 -0.281185 1.077397
0.104893 -0.389938 0.996808
0.079588 -0.226888 1.009678
-0.020278 -0.293665 1.041481
-0.027512 -0.284643 1.055586
0.060781 -0.021336 1.020886
0.114051 -0.396473 1.050731
0.033264 -0.248087 1.033643
0.205381 -0.390383 1.037860
-0.029023 -0.280864 1.042611
0.254466 -0.421025 1.099177
0.005236 -0.390058 1.025433
0.230126 -0.523631 1.305673
0.002653 -0.468299 0.967776
0.140060 -0.385753 1.064988
0.111116 -0.385126 0.985430
-0.105495 -0.386317 1.161641
0.208102 -0.487227 1.358139
0.112252 -0.242657 0.980867
-0.068804 -0.278600 1.081635
0.015781 -0.374404 1.029505
0.269307 -0.303276 1.086602
0.257876 -0.286739 1.059210
0.166798 -0.408911 1.179088
0.000990 -0.281353 1.087127
-0.054393 -0.278683 1.064859
0.030526 -0.407604 1.053686
-0.008031 -0.184817 1.039990
-0.054569 -0.298133 1.079993
-0.059989 -0.284090 1.092485
-0.012017 -0.221093 1.027200
0.004926 -0.237235 1.005003
0.061754 -0.396115 1.047674
0.071060 -0.393424 1.047491
0.010080 -0.459985 1.359877
0.128728 -0.389649 1.000255
-0.842651 0.329216 1.027167
0.013897 -0.204894 1.034350
0.076276 -0.289231 0.963402
0.044769 -0.201650 1.031661
0.032712 -0.205644 1.028657
-0.142423 0.099214 1.202978
-0.036505 -0.259979 1.047782
-0.010655 0.003612 1.041621
0.048890 0.013407 1.029250
-0.018201 -0.233690 1.023894
-0.104989 -0.327550 1.221986
0.191032 -0.438157 1.200628
-0.004145 -0.226624 1.053480
0.002489 -0.097968 1.076831
-0.011836 -0.279575 1.069206
-0.000174 -0.424261 1.150926
-0.140106 -0.114028 1.237631
-0.090395 0.023378 1.147042
0.204601 0.012601 1.038206
0.011973 -0.271226 1.049963
0.152860 -0.460665 1.215629
0.078757 -0.429515 1.165255
0.165102 -0.465460 1.299069
0.151202 -0.458175 1.311352
0.303107 -0.176627 1.537805
0.008759 -0.380695 1.023382
-0.038611 -0.326148 1.062354
-0.007431 -0.463563 1.114521
0.318739 -0.261759 1.118672
-0.045107 -0.284888 1.073425
-0.120008 -0.295668 1.182999
-0.086004 -0.262741 1.069558
0.038078 -0.246688 1.016369
0.065011 0.095120 1.097370
0.024848 -0.227359 1.054698
0.306444 -0.315840 1.151802
0.081962 -0.416565 1.108831
0.271206 -0.457959 1.286114
-0.027568 -0.269917 1.064274
0.163646 -0.456159 1.260641
0.056004 -0.253479 1.031531
-0.074251 -0.407487 1.107320
0.131926 -0.267262 1.000811
-0.012005 -0.193321 1.042710
0.088169 -0.254980 1.006155
-0.023759 -0.266993 1.083990
0.010862 -0.257756 1.010298
0.046005 -0.259974 1.059314
0.013560 -0.435363 1.200746
-0.109022 -0.024167 1.141181
0.084044 -0.459247 1.387002
-0.021124 -0.264555 1.032599
0.294343 -0.439047 1.224648
-0.073880 -0.383540 1.109770
0.015191 -0.361971 1.028195
0.227350 -0.266411 1.033751
0.186444 -0.436299 1.190472
0.246246 -0.411312 1.113593
0.082461 -0.458851 1.396199
-0.065903 0.037531 2.213598
0.178113 -0.287845 1.038294
-0.107936 0.033805 1.168832
0.155952 -0.427202 1.174155
0.032805 -0.337899 1.047730
0.078596 -0.278222 1.020848
0.078151 -0.300862 1.003984
0.039726 -0.217510 1.005467
0.008699 -0.235847 1.031973
0.058227 -0.239221 0.985546
0.011983 -0.238104 0.998234
-0.000187 -0.179348 1.053464
-0.023547 -0.267352 1.026972
0.194727 -0.395836 1.064409
0.007055 -0.469008 1.370023
0.091769 -0.468150 1.340807
-0.159073 0.010039 1.321072
-0.096767 0.119550 1.167230
0.083467 0.065041 1.027381
0.054769 -0.283468 1.037324
0.235202 -0.407474 1.094089
0.961601 0.118167 1.530436
-0.013544 0.028701 1.049351
-0.024354 -0.272236 1.057133
-0.141413 0.160579 1.266866
-0.059291 -0.301430 1.108401
-0.128374 0.009219 1.181080
-0.145730 -0.188797 1.335729
-0.032990 -0.295871 0.940438
-0.039407 -0.274740 1.067846
-0.024434 0.019659 1.052538
-0.154368 -0.196166 1.319636
-0.098374 -0.298132 1.212965
-0.030551 -0.034053 1.047470
-0.075568 -0.403249 1.315758
-0.142387 -0.231306 1.353710
-0.151679 -0.230575 1.343831
-0.011428 -0.265648 1.033812
0.095373 -0.349702 1.086834
-0.036359 -0.286728 1.052684
0.046875 -0.282660 1.025250
0.200935 -0.397051 1.065493
0.151930 -0.452187 1.269825
-0.137243 -0.277751 1.168996
0.174701 -0.401437 1.156581
0.247697 -0.282257 1.074696
0.008012 -0.258507 1.007617
0.084487 -0.262695 1.011359
0.089203 -0.004520 1.024971
0.144057 -0.268254 1.043109
-0.095806 -0.273494 1.109298
-0.098830 -0.312777 1.210438
0.215891 -0.252113 1.066405
0.152032 -0.268261 1.002763
0.134050 -0.275649 1.042857
-0.072794 -0.154797 1.062780
0.264550 0.267268 1.125031
-0.145986 0.002626 1.354480
0.077909 -0.403955 1.027009
-0.080837 -0.413707 1.316737
0.104673 -0.454098 1.371028
0.292293 -0.438550 1.220862
0.141310 0.019335 1.032794
-0.089657 -0.279449 1.123648
-0.115171 -0.104787 1.137365
-0.098662 -0.021699 1.131677
-0.090605 -0.277618 1.079300
0.290287 -0.187521 1.263016
0.051210 -0.212792 1.149984
-0.085636 -0.362400 1.320581
0.070915 0.046665 1.090095
0.169143 -0.407987 1.178885
0.009487 -0.447827 0.996976
0.168844 -0.414423 1.175089
0.228638 -0.357593 1.038943
0.325454 -0.340468 1.117887
0.043721 -0.202707 1.039726
0.248220 -0.422192 1.116208
-0.090917 0.113976 2.221566
-0.044484 -0.603952 1.207710
0.375607 -0.149043 1.177206
-0.033654 -0.287273 1.062389
-0.158428 -0.155584 1.180159
-0.058558 -0.302644 1.112084
0.224476 -0.236433 0.997772
0.231696 -0.393361 1.043022
-0.128246 -0.263551 1.169167
0.176125 -0.267021 1.001062
0.031368 -0.404123 1.054288
-0.114510 -0.273877 1.138595
0.129105 -0.386379 1.006148
0.113639 -0.390849 1.063488
-0.038422 -0.296856 1.064403
0.127069 -0.493127 1.230419
0.125838 -0.213891 1.004051
0.236957 -0.461250 1.267502
-0.138009 -0.024250 1.384172
-0.066113 -0.380123 1.118106
-0.013924 -0.262550 1.032169
0.069444 -0.421656 1.178928
0.250847 -0.413874 1.127621
0.276434 -0.461476 1.297933
-0.148890 -0.227414 1.163253
-0.056002 -0.273739 1.068175
0.037969 -0.419075 1.129242
0.197321 -0.402113 1.019924
-0.019071 -0.147637 1.041165
0.191482 -0.223461 0.971743
0.196730 -0.468440 1.380318
0.309824 -0.406154 1.149593
0.021966 -0.393287 1.020351
0.208306 -0.548288 1.305607
0.226221 -0.380063 1.037499
0.155826 -0.467550 1.343001
0.083293 -0.262898 1.013035
0.156164 -0.466040 1.346105
-0.125321 -0.100552 1.398815
-0.072197 -0.274323 1.097816
0.034891 0.055368 1.080215
0.054691 -0.287062 1.039534
0.062586 -0.263964 1.022345
0.051704 -0.336540 1.023536
-0.033373 -0.284648 1.076656
-0.137175 0.020721 1.196486
-0.082925 -0.016651 1.120908
0.197154 -0.244829 0.982902
-0.078778 -0.281324 1.089249
-0.206593 0.022264 2.056805
-0.104417 -0.322808 1.303501
-0.097630 0.195167 1.494478
0.054628 -0.241294 1.021259
0.108203 -0.233330 1.080324
0.126684 -0.267791 1.022301
-0.011709 -0.338707 1.036228
0.025373 -0.452309 1.003336
0.231887 -0.393069 1.042879
0.194793 -0.017959 1.025228
-0.243829 0.041483 2.080443
-0.106904 -0.383883 1.167551
0.159959 -0.006584 1.023281
0.084636 -0.457945 1.350380
0.073381 -0.455326 1.394491
-0.134490 0.019497 1.367649
0.019091 -0.282605 1.016236
0.140465 -0.465277 1.324293
0.190933 -0.144538 1.001031
-0.155852 -0.183778 1.264691
-0.132863 0.056405 1.336815
-0.106096 -0.284943 1.035411
-0.148553 0.009568 1.340200
0.179448 -0.395372 1.026289
-0.098132 -0.403880 1.285267
-0.026746 -0.019305 1.044913
0.201503 -0.441468 1.139256
0.087866 0.059610 1.041448
0.250220 -0.398445 1.069347
0.189699 0.000079 1.022980
0.100289 -0.437599 1.219290
0.077403 -0.268029 0.982472
0.259447 -0.168068 1.064977
0.246934 -0.420740 1.125182
0.169351 -0.260242 1.024632
0.045487 -0.466966 1.028334
0.182231 -0.497339 1.303273
-0.152700 0.017959 1.285908
0.157667 -0.460690 1.237325
-0.147772 0.072391 1.261749
0.116060 -0.287693 1.018792
-0.097138 -0.139629 1.110388
0.049070 -0.237831 0.989296
0.076640 -0.227485 0.991874
-0.024000 -0.404726 1.122205
0.017312 -0.390847 1.016782
0.187550 -0.466452 1.327193
0.200254 -0.474078 1.309984
0.043084 -0.418236 1.057450
0.183163 -0.461518 1.322824
-0.089220 -0.342615 1.372311
0.188848 -0.589339 1.232197
0.183740 -0.460103 1.324128
-0.061936 -0.415121 1.087229
0.299142 -0.242969 1.092422
0.148440 -0.440002 1.319378
0.016825 -0.253325 0.990215
0.184293 -0.459798 1.327940
-0.035974 -0.330544 1.022551
-0.099643 -0.319494 1.115995
0.020126 -0.527172 1.305837
-0.001272 -0.209136 1.028726
-0.222351 -0.037644 1.945626
-0.006054 -0.188148 1.033526
0.068163 -0.442974 1.420452
0.295731 -0.335317 1.405820
0.087427 -0.391969 1.211725
0.169225 -0.482673 1.328288
0.173538 -0.513502 1.301326
0.059162 -0.452834 1.211919
0.115166 -0.449653 1.259812
0.264655 -0.389591 1.110085
0.577648 0.217429 1.693491
0.049066 -0.408247 1.100132
0.117292 -0.475529 1.200175
0.181851 -0.475066 1.324104
0.012152 -0.255745 0.993534
0.085835 -0.422361 1.107730
0.111136 -0.440898 1.211823
0.070431 -0.428566 1.090182
0.115600 -0.446883 1.221935
0.042101 -0.407423 1.100457
0.114000 -0.403974 1.058064
0.407109 -0.106146 1.182127
0.353080 -0.240965 1.108255
0.137842 -0.254293 1.004219
-0.033353 -0.273675 1.056731
-0.006916 -0.384807 1.028194
-0.051720 -0.208996 1.085729
0.346361 -0.149818 1.146942
0.343075 -0.248088 1.116320
0.229507 -0.479722 1.344239
0.338535 -0.292371 1.085351
0.035121 -0.415996 1.130420
0.171837 -0.261163 1.018161
0.319305 -0.103044 1.251224
0.128284 -0.386372 1.008087
0.193453 0.023381 1.044803
0.053428 -0.011345 1.023198
0.280421 -0.409770 1.137478
0.262248 -0.095574 1.064115
0.006465 -0.356526 1.089804
-0.106664 -0.310088 1.234922
-0.057185 -0.016184 1.069092
0.158130 0.028470 1.005821
0.276430 -0.412903 1.138075
-0.036681 -0.297279 1.075230
0.064539 -0.186699 0.998176
-0.064739 -0.255240 1.060704
0.131262 -0.271150 0.995756
0.103051 -0.390059 0.992568
-0.132184 0.009750 1.381759
0.181512 -0.021367 1.002368
0.002716 0.032068 1.065417
-0.156706 -0.147489 1.189965
-0.012017 0.104763 1.097241
0.053114 -0.417687 1.079634
-0.025757 -0.303235 1.029555
0.080523 -0.355139 1.008386
0.162700 -0.461397 1.304343
0.158713 -0.273014 1.015740
0.078257 -0.263473 1.023353
-0.027897 -0.003134 1.049380
0.081128 -0.415949 1.104212
-0.116315 -0.261360 1.126496
0.100640 -0.448463 1.353878
-0.063632 -0.360640 1.123435
-0.073659 -0.273596 1.083969
-0.115017 -0.290573 1.163577
-0.100429 0.190923 1.487644
-0.126246 -0.027990 1.168157
-0.152104 0.023919 1.235060
-0.094602 -0.014636 1.143803
-0.099114 -0.419179 1.179669
-0.115915 -0.105893 1.131029
0.097441 -0.008076 1.026246
0.252375 -0.424053 1.128865
0.081424 -0.425248 1.149178
0.038464 -0.197593 1.023225
-0.046064 -0.267934 1.068521
-0.816918 0.323187 0.957014
-0.075589 -0.405190 1.103428
-0.025134 -0.268108 1.044934
0.029925 -0.407254 1.084182
0.115887 -0.389384 1.002697
0.231370 -0.410028 1.101762
-0.093566 0.033292 1.139075
0.229621 -0.412742 1.101057
-0.158927 -0.275472 1.164171
-0.043678 -0.261244 1.039631
0.196931 -0.119768 0.998116
0.273438 -0.453147 1.287936
-0.012910 0.231049 1.114514
0.161880 -0.465071 1.263014
-0.130112 -0.265504 1.208629
-0.027945 -0.408658 1.121807
0.302682 -0.264028 1.095933
0.170723 -0.298304 1.010769
-0.017162 -0.389775 1.122201
0.266265 -0.407607 1.096790
0.099024 -0.235099 1.010260
0.205115 -0.382837 1.043179
-0.017576 -0.094695 1.096555
0.362405 0.067555 1.706124
-0.062781 -0.385670 1.118021
0.152988 -0.429782 1.172960
0.090791 -0.228375 1.013986
0.076690 -0.394500 1.045802
-0.146729 -0.273406 1.337710
0.300246 -0.437462 1.220379
0.241097 -0.410459 1.109161
0.221998 -0.489463 1.341890
-0.038477 -0.183936 1.067321
-0.007924 -0.160153 1.034037
0.080834 -0.353211 1.009914
-0.055175 -0.252919 1.051687
0.075093 -0.346126 1.018035
0.028441 -0.247313 1.056125
-0.047049 -0.269004 1.051672
-0.039933 -0.253054 1.056471
0.061251 -0.288307 1.024677
0.241221 -0.489456 1.324850
-0.040878 -0.267215 1.069001
0.244077 -0.007916 1.058730
0.207409 -0.395549 1.035929
0.113604 0.006143 1.022428
0.192057 0.044187 1.021389
0.273564 -0.439338 1.329304
-0.069400 -0.396698 1.098194
0.076439 -0.400591 1.096359
0.279712 -0.410406 1.136933
0.163415 -0.454503 1.263570
0.047675 -0.317596 0.987965
0.128749 -0.388703 1.004471
0.158669 -0.423392 1.146643
0.051144 -0.415474 1.080493
-0.013208 -0.145233 1.022077
-0.045286 -0.113566 1.021617
-0.024684 -0.255609 1.016233
-0.111964 -0.369465 1.292578
0.271806 -0.452239 1.291398
-0.019913 -0.297799 1.043805
0.050728 -0.214110 1.035701
0.000334 -0.205452 1.034850
-0.011252 0.274942 1.168391
0.086060 0.012837 1.037996
0.189251 -0.027061 1.010469
0.295485 -0.439247 1.224843
0.070823 0.026354 1.042024
0.012452 -0.378922 1.014507
0.354015 -0.123446 1.162795
0.158384 -0.426198 1.142802
0.153802 -0.422693 1.179192
0.015396 -0.292206 1.026645
0.260123 -0.411156 1.149954
-0.067019 -0.272225 1.103712
0.069460 -0.388588 1.053757
0.167646 -0.401121 1.185811
0.011333 -0.243590 1.027491
0.055525 -0.286003 1.000288
0.116416 -0.402953 1.046633
0.338118 -0.128928 1.301111
0.066533 -0.414135 1.098883
0.149584 -0.452763 1.307787
0.129178 0.028946 1.043987
0.114105 -0.403398 1.058044
0.241140 -0.414107 1.106545
0.088513 -0.259449 0.982249
0.018927 0.019398 1.050867
0.068586 -0.286256 1.013548
-0.029501 -0.250637 1.016464
0.284540 -0.089006 1.095094
0.016058 0.010595 1.055064
0.030117 0.015053 1.054082
0.033145 -0.419511 1.106929
0.006936 0.011080 1.062089
-0.914741 0.503451 0.961425
0.243476 -0.423934 1.114599
-0.139706 -0.262120 1.173410
0.025898 -0.276032 1.059227
0.157697 -0.239357 0.979037
-0.016887 -0.074971 1.108090
0.169348 -0.463818 1.263473
0.247338 -0.436167 1.212761
0.315972 -0.241687 1.162685
0.095849 -0.243842 0.971101
0.157208 -0.218081 0.988304
-0.107689 -0.002186 1.146651
-0.032640 -0.006614 1.054189
-0.066561 -0.295051 1.124337
-0.108775 -0.406625 1.215567
0.069025 -0.345151 1.022441
0.428055 0.028795 1.650601
0.199522 0.067192 1.044183
0.239561 0.012246 1.009119
0.182217 0.197052 1.139158
0.166098 -0.454826 1.275089
0.068503 -0.232390 0.987844
0.199141 -0.486261 1.302602
-0.079712 -0.416019 1.177569
0.108576 -0.284111 1.033754
0.256550 -0.409652 1.122937
0.245562 -0.379216 1.067072
0.200492 -0.474849 1.371465
0.184266 -0.178777 0.989794
-0.136593 -0.101708 1.186082
0.233258 -0.451145 1.274344
0.168903 -0.461977 1.274235
0.337670 -0.079842 1.213170
0.048855 -0.409290 1.055288
-0.110397 -0.387210 1.289690
-0.112399 -0.329116 1.149317
-0.145076 -0.277580 1.197350
0.138333 -0.451744 1.237321
0.002593 -0.281935 1.054939
0.027555 -0.017850 1.028211
0.195028 0.035190 1.069161
0.090304 -0.432261 1.157681
-0.102377 -0.403955 1.265441
0.088520 -0.395068 1.113396
-0.018863 -0.420850 1.119594
0.052251 -0.218722 0.997634
0.306546 -0.426912 1.227888
0.310348 -0.434409 1.205202
0.315344 -0.233041 1.148723
0.019071 -0.238350 1.034648
0.157021 -0.262005 0.990280
0.014471 -0.175520 1.059156
-0.123650 -0.252250 1.151776
-0.046152 -0.366835 1.046797
0.351103 -0.244297 1.108335
0.057642 -0.209602 1.019352
-0.025727 -0.139667 1.017188
0.048048 -0.222481 1.123402
0.259670 -0.409471 1.129285
0.274446 -0.413160 1.103864
0.227717 -0.445638 1.261913
0.088074 -0.298738 0.986490
-0.173249 -0.161595 1.190375
-0.005973 -0.178094 1.037565
0.137701 -0.242978 0.977343
0.086953 -0.265218 0.980782
-0.120223 -0.265755 1.109792
0.044840 -0.162288 1.004956
0.194266 -0.333830 1.041313
-0.023685 -0.126817 1.078078
0.246832 -0.410750 1.395515
0.071576 -0.216269 0.996994
-0.151198 -0.269906 1.307468
0.045384 -0.222383 1.001479
