0.149150 0.052873 1.033320
-0.160826 0.336791 1.406856
-0.187579 -0.197811 1.053392
-0.214615 -0.094321 1.070179
0.067717 0.039983 0.957220
0.028405 -0.295042 1.005602
0.020635 0.234060 1.198655
-0.110623 0.430030 1.437189
-0.127796 -0.138111 1.091015
-0.036092 -0.069513 1.389994
-0.078268 -0.226412 1.122505
0.046749 0.219302 1.290743
0.241874 -0.089661 1.211206
0.080069 0.034969 0.979746
0.188154 -0.049991 1.112988
0.056157 -0.030961 0.990491
-0.246840 -0.214288 1.094518
-0.027619 0.049086 0.960666
0.132344 0.042947 0.996706
-0.109334 0.099888 0.969418
-0.181790 0.230301 1.187479
-0.319374 -0.033273 1.014887
-0.014713 -0.026698 1.059421
-0.069292 0.008623 0.951769
-0.098058 -0.026100 0.993214
-0.390172 0.098170 1.050355
-0.082886 -0.314727 0.953528
-0.011353 -0.241258 1.018524
0.266326 0.071989 1.192790
-0.248201 0.076823 0.953434
0.144350 0.062208 1.045822
0.152873 0.055038 1.020623
-0.149737 -0.314164 1.164640
-0.255718 0.217095 1.186655
-0.397073 -0.087458 1.209911
-0.231616 0.129749 0.957401
0.064297 -0.003496 1.009955
0.042392 -0.030116 1.053324
-0.068689 -0.288924 1.003102
-0.025037 0.177364 1.061626
0.106623 0.065227 0.970678
-0.124134 -0.324743 0.987121
-0.291617 -0.060629 1.050692
-0.098661 -0.172299 1.079843
0.010667 0.074808 0.944830
-0.302967 0.039369 0.973732
0.034526 0.016631 1.027145
-0.188838 -0.069518 1.091694
-0.125529 -0.057348 1.022059
0.121930 -0.067240 1.088130
0.096332 -0.307270 1.101237
-0.077739 0.281888 1.361844
-0.028752 0.042093 0.943336
0.286960 0.081272 1.254245
-0.271031 0.011877 0.996301
-0.147190 -0.310645 0.983402
-0.023131 0.174779 1.021972
0.009319 -0.254610 1.013453
-0.256222 -0.054659 1.038516
-0.219547 -0.041703 1.037589
-0.229795 -0.228253 1.080988
-0.188431 -0.239392 1.072367
-0.168451 -0.333090 0.965077
-0.179947 -0.034752 1.006800
0.073580 -0.064090 1.138494
-0.068823 -0.249088 1.038451
-0.275437 0.096961 0.967171
0.134358 -0.061323 1.189453
-0.205067 -0.067575 1.048019
-0.160845 -0.001269 0.962786
0.190178 -0.011104 1.080050
-0.125417 -0.056419 1.026143
0.033101 -0.302552 1.036481
-0.210118 -0.292081 1.033448
-0.070094 -0.287786 0.993081
0.004869 -0.185916 1.234816
-0.490654 -0.103431 1.273159
-0.052586 -0.331524 1.041296
-0.062408 -0.238224 1.204977
-0.107090 0.017377 0.959971
0.296815 -0.033074 1.248889
-0.298064 -0.069692 1.127581
-0.110193 -0.279195 1.025969
-0.227159 -0.322919 1.044297
0.150275 -0.079192 1.164525
-0.199982 -0.340095 1.020319
-0.329818 -0.031121 1.042253
-0.008495 -0.190848 1.054903
-0.243268 0.005088 0.991527
-0.375714 -0.160507 1.273921
0.068269 0.021345 0.983865
-0.127384 0.007397 0.977011
0.073788 -0.265586 1.046350
-0.188603 -0.325002 1.155271
-0.429468 -0.067046 1.135123
-0.200012 -0.213788 1.062774
-0.400043 -0.057629 1.093083
-0.303174 0.142204 1.034887
0.140772 -0.323416 1.036435
-0.224316 0.123900 0.959928
-0.114519 -0.164524 1.275652
-0.284258 0.086003 0.988192
-0.285125 0.043222 0.984086
-0.444049 -0.026055 1.117647
-0.100684 -0.171238 1.061039
-0.268198 -0.297859 1.098536
-0.455272 0.077622 1.204886
-0.461763 -0.070434 1.160294
0.038017 -0.257254 1.014757
-0.331422 -0.011525 1.034698
-0.155099 -0.148199 1.385300
-0.145466 0.132183 0.949229
-0.293364 -0.070294 1.031891
-0.465504 -0.074109 1.179776
-0.313791 -0.110292 1.134007
-0.067119 -0.108633 1.036554
-0.360006 -0.036853 1.057083
-0.273558 -0.359496 1.256534
-0.358166 -0.135790 1.607963
-0.486487 0.022889 1.320377
-0.351247 -0.130622 1.199011
-0.431220 -0.128358 1.320976
-0.429307 -0.100128 1.228208
-0.289587 -0.419405 1.284443
0.063711 -0.241276 1.061682
0.104935 -0.246346 1.087690
0.214352 -0.118329 1.375672
-0.271744 0.074169 0.939233
-0.274453 -0.250307 1.139420
-0.101851 -0.171919 1.060184
0.007283 -0.211795 1.058853
-0.100563 -0.172725 1.062475
0.044082 -0.013728 1.003744
-0.024388 0.051269 0.946312
-0.354767 -0.186710 1.240278
0.054373 -0.272732 1.007625
-0.262959 0.205743 1.145691
0.081194 -0.408761 1.262102
-0.381238 0.339121 1.598228
-0.398600 -0.126186 1.289483
-0.381753 -0.067051 1.102227
0.012005 -0.204620 1.457609
-0.079955 -0.091331 1.721878
-0.284048 -0.276680 1.118511
-0.276053 -0.330374 1.323154
-0.160523 0.249386 1.193189
-0.443314 -0.028629 1.155695
-0.464270 -0.084986 1.204166
-0.292136 -0.254172 1.178639
-0.292717 -0.325690 1.074277
-0.425042 -0.059640 1.137402
-0.301904 -0.210103 1.420932
-0.242081 -0.097905 1.052719
-0.442622 -0.028123 1.146136
-0.461599 -0.041525 1.360384
-0.329535 -0.192805 1.361029
-0.282745 -0.124090 1.116151
-0.465354 -0.064739 1.228383
-0.420820 -0.014990 1.093906
-0.239090 -0.434898 1.396668
-0.155257 -0.241402 1.038081
-0.382785 -0.146237 1.434209
-0.197950 -0.339744 1.087639
-0.432948 -0.105176 1.264775
-0.431979 -0.099732 1.184143
-0.055688 -0.128580 1.027635
-0.089259 -0.006485 0.963046
-0.048461 -0.375085 0.938660
-0.103814 -0.030527 0.990741
-0.465098 0.051015 1.213978
-0.467823 0.022548 1.151643
0.037330 0.115972 0.963870
-0.107618 0.016040 0.953538
-0.445219 -0.103159 1.185553
-0.283288 -0.162735 1.128362
-0.464755 -0.068668 1.180822
-0.267920 -0.357347 1.094610
-0.333617 0.156868 1.122549
-0.226868 -0.305586 1.062833
-0.416908 0.012174 1.048681
-0.098897 0.251287 1.177412
-0.246622 0.072662 0.951432
-0.413347 0.075249 1.067528
0.113886 0.042783 0.954095
-0.423738 -0.016140 1.166319
-0.360513 -0.003652 0.945548
-0.224023 -0.306263 1.070131
-0.351510 -0.132123 1.190112
-0.358423 -0.104578 1.085124
-0.186275 0.262276 1.350247
-0.334255 0.147499 1.090744
-0.333621 0.116224 1.042938
-0.165942 -0.265483 1.486600
-0.494435 -0.015051 1.311697
-0.426025 -0.053391 1.132446
-0.360531 -0.152606 1.277390
-0.216901 -0.302644 1.080391
-0.459907 -0.098127 1.459550
-0.280442 -0.375958 1.273779
-0.273605 0.028484 1.001902
-0.489270 -0.012866 1.314461
-0.349930 0.084270 1.019477
-0.295470 0.104316 0.984946
-0.471131 0.075120 1.183829
-0.273573 -0.291901 1.228318
-0.283706 -0.186645 1.561414
0.383602 0.482457 1.404822
-0.211154 -0.326423 1.008566
-0.348633 0.082588 0.978021
-0.358972 -0.128755 1.160453
-0.352022 -0.004439 1.035244
-0.146338 0.165485 0.976254
0.110337 0.120985 1.013288
-0.239868 -0.330840 1.157394
-0.411438 0.051197 0.993167
-0.145398 0.112834 1.060899
-0.465195 0.063068 1.234364
-0.415126 0.086139 1.113420
-0.173774 -0.150209 1.112434
-0.241871 -0.202008 1.154248
-0.406618 0.069760 1.082070
-0.302675 -0.216753 1.158199
-0.400419 -0.053774 1.096905
-0.008355 -0.266768 0.987438
0.079701 0.398121 1.437270
-0.194461 -0.314355 1.031380
-0.309863 -0.100248 1.117423
-0.282762 -0.222208 1.438398
-0.329010 -0.006939 1.317141
-0.329830 -0.009629 1.028524
-0.339296 -0.180673 1.269880
-0.420211 -0.026894 1.520451
-0.284504 -0.240994 1.359796
-0.311169 -0.345659 1.127310
-0.294749 -0.279795 1.124713
-0.425104 -0.023594 1.520942
0.221622 0.136799 1.365692
0.159934 -0.314606 1.061570
0.135352 -0.285031 1.223771
0.275510 0.039232 1.432194
0.100732 -0.197151 1.230602
0.273060 0.079114 1.347486
0.268929 -0.045586 1.204592
-0.072519 -0.025476 0.987835
-0.370922 -0.175564 1.387379
-0.388804 -0.125492 1.237936
-0.359484 0.124998 1.190127
-0.415045 0.084834 1.113417
-0.422006 -0.012770 1.101065
-0.533697 -0.305515 1.291638
-0.413723 0.086277 1.115598
-0.067319 -0.242337 1.054252
-0.381892 -0.146878 1.430449
-0.015902 -0.028339 1.057179
-0.328953 0.096106 1.432087
-0.375978 -0.005554 1.061131
-0.255775 -0.154553 1.107275
-0.453913 -0.118913 1.378515
-0.303722 -0.226031 1.187317
-0.326041 -0.202277 1.389779
-0.286471 -0.182650 1.134065
-0.221902 -0.148008 1.687281
-0.475106 -0.049159 1.199660
-0.454794 -0.113407 1.458137
-0.224869 -0.346123 1.050806
-0.272286 -0.297024 1.359630
-0.382161 -0.080724 1.591891
-0.318061 -0.176055 1.452410
-0.443049 0.029214 1.110471
-0.406342 -0.132183 1.289039
-0.327634 -0.397530 1.211257
-0.314987 0.004018 1.638917
-0.362185 -0.170943 1.493280
-0.476312 -0.095079 1.383364
-0.162693 -0.200640 1.273053
-0.490825 -0.090819 1.417736
-0.403396 -0.015503 1.100825
-0.278119 -0.289918 0.983513
-0.359188 -0.130969 1.198913
-0.398832 -0.158350 1.449613
-0.206207 0.155380 1.109486
-0.117993 -0.345524 1.006025
-0.318198 -0.391855 1.177912
-0.365475 -0.087466 1.121649
-0.354331 -0.116812 1.179920
-0.477500 -0.048155 1.203549
-0.300715 -0.391236 1.118084
-0.500471 -0.038275 1.382837
-0.280356 -0.311929 1.205893
-0.279921 0.024117 0.972775
-0.245103 0.019088 0.979803
-0.294165 -0.281483 1.138723
-0.388746 0.028381 1.032011
-0.454384 -0.140633 1.248933
-0.061979 0.074481 0.947179
-0.199184 0.002292 0.987195
-0.359778 -0.091022 1.065135
-0.292502 -0.024732 1.012876
-0.115028 -0.015559 0.966145
-0.179942 -0.034040 1.016346
-0.068887 -0.250232 1.041303
-0.028049 0.048919 0.944078
0.021415 0.182862 1.048467
0.071268 0.167627 1.046219
-0.367536 -0.079275 1.091156
-0.042903 0.011022 0.950687
-0.220346 -0.024604 1.022319
-0.043549 -0.178293 1.078986
-0.135582 -0.225719 1.060477
0.148044 -0.360137 1.022585
-0.101072 0.076134 0.934466
-0.327703 -0.062091 1.067722
-0.187481 -0.061194 1.041237
-0.087197 -0.136673 1.248869
-0.169341 0.048546 0.943431
-0.167112 -0.132777 1.046153
-0.137582 -0.230649 1.072786
-0.135582 0.038675 0.923483
-0.197934 0.061233 0.927641
-0.201478 -0.245792 1.046913
0.061709 -0.212070 1.092014
-0.186468 -0.197663 1.059361
-0.168186 0.049916 0.943064
0.109356 0.129981 1.016339
-0.004882 -0.267623 1.002437
-0.174643 -0.312345 1.125335
-0.047631 -0.083053 1.038157
-0.213314 0.013642 0.962452
0.051687 -0.087108 1.099589
-0.141377 0.090931 0.949870
-0.151703 0.069719 0.921846
-0.132395 -0.254284 1.039672
-0.257986 -0.056796 1.040912
0.003270 -0.293062 0.989906
-0.192040 -0.335404 0.993426
-0.436946 0.061772 1.134526
0.109000 -0.002839 1.009719
-0.023259 0.000947 0.958100
-0.126477 -0.056904 1.023708
-0.167834 -0.334041 0.970473
-0.003608 -0.084786 1.065887
-0.312382 -0.033115 1.034301
-0.159758 -0.301666 0.968036
-0.167979 -0.333884 0.970283
-0.188626 -0.060967 1.033450
-0.455994 -0.048006 1.177239
0.282197 0.079259 1.257317
-0.222643 -0.145768 1.082375
-0.250110 -0.303693 1.022059
-0.271400 -0.386408 1.063717
0.204894 -0.383679 1.292059
-0.327005 0.002596 0.998230
-0.038813 0.132356 0.941184
-0.130876 -0.250386 1.029262
-0.167790 0.121685 0.941979
-0.166426 0.048462 0.946608
-0.201018 -0.125131 1.069335
-0.238947 -0.076155 1.055182
-0.250911 -0.353276 1.020591
0.076498 -0.071539 1.144366
-0.173320 0.036240 0.947682
0.104805 -0.292658 1.029198
-0.317589 0.030249 1.006151
0.104324 -0.270030 1.067324
-0.281231 0.134792 1.005218
-0.279095 -0.185068 1.113825
-0.366690 -0.056481 1.069177
-0.114983 -0.022191 0.987091
0.025392 0.187551 1.079691
-0.268077 -0.294753 1.087071
-0.396459 -0.152376 1.452720
-0.246661 -0.222607 1.475929
-0.248387 -0.182172 1.574583
-0.413492 -0.042522 1.543877
-0.317615 -0.352754 1.048284
-0.144327 0.244692 1.341698
0.275458 0.023331 1.431141
0.028357 0.243209 1.213781
0.020936 -0.155777 1.084924
0.234536 -0.025108 1.176344
-0.046485 -0.319450 1.299852
-0.062230 -0.176415 1.036726
0.183487 -0.330279 1.143904
0.101961 -0.320681 1.036653
0.178590 -0.370020 1.284435
0.037883 -0.238178 1.083817
0.031575 -0.034542 1.017350
0.015020 -0.244152 1.093614
0.071922 -0.131540 1.170780
0.129469 -0.266758 1.166223
0.183033 -0.323953 1.105972
0.220075 -0.066783 1.187761
-0.158097 0.193399 1.137635
-0.395008 -0.141794 1.278214
-0.497129 -0.038479 1.203090
0.170992 -0.043677 1.045767
-0.224635 -0.335185 1.083617
-0.378412 0.046872 1.056658
-0.450198 -0.115316 1.517302
-0.501296 0.068613 1.287215
0.162048 0.467945 1.056056
-0.481261 -0.090076 1.307938
-0.305949 -0.315871 1.304457
-0.220765 -0.102294 1.058581
-0.100260 0.073791 0.918081
-0.518782 -0.048915 1.319755
-0.152470 -0.065133 1.038934
-0.256909 -0.219485 1.305804
-0.305575 0.186258 1.333885
-0.477369 -0.046649 1.201174
-0.164095 -0.090871 1.037601
0.151788 -0.274243 1.311191
0.109674 0.002263 1.010733
0.154318 0.142452 1.125201
-0.361732 -0.123652 1.599684
-0.260296 -0.443173 1.351744
-0.279911 -0.193102 1.477655
-0.292615 -0.196987 1.476490
-0.176102 0.555134 1.323232
-0.344338 -0.180373 1.407443
-0.300647 -0.290308 1.197837
-0.189120 -0.295437 1.006475
-0.151694 -0.315909 1.282226
-0.325131 -0.174196 1.105277
-0.271963 -0.224416 1.199773
-0.441412 -0.103850 1.387089
-0.229066 -0.074424 1.072390
-0.346418 0.163589 1.185775
-0.240406 -0.329730 1.070794
-0.429119 -0.082099 1.155274
-0.501989 -0.015564 1.301445
-0.337348 -0.068433 1.073030
-0.096011 -0.085577 1.023992
-0.508381 -0.009032 1.253432
0.006677 -0.210597 1.055202
-0.282972 -0.244184 1.187163
-0.347154 0.018337 1.014160
-0.109580 0.322053 1.361227
-0.035382 -0.095669 1.168692
-0.258032 -0.076586 1.064891
-0.254124 -0.054635 1.042492
-0.269633 -0.090085 1.083141
-0.176207 0.117909 0.945335
-0.052427 -0.052379 1.015688
-0.067356 0.179304 1.041646
-0.257173 -0.055387 1.044863
-0.159332 -0.002138 0.975220
-0.246726 -0.253753 1.072183
-0.160041 0.211199 1.074701
-0.256253 -0.170961 1.411827
-0.072943 -0.291649 1.277442
-0.300557 -0.138878 1.509139
-0.452827 0.083262 1.311090
-0.483648 -0.096242 1.383286
-0.323321 -0.131583 1.237228
-0.308079 0.190085 1.432397
-0.068910 -0.306521 0.941686
-0.207661 0.102830 0.938516
-0.292529 -0.286373 1.255366
-0.443932 -0.090588 1.248216
-0.434413 -0.092267 1.200288
-0.272998 -0.403057 1.385754
0.255737 0.031714 1.213065
0.228469 -0.052103 1.556734
0.076203 -0.076450 1.088562
0.141137 -0.093666 1.147363
0.242604 -0.053664 1.444108
0.199672 0.021927 1.067746
0.043378 -0.047571 1.155331
0.194152 -0.331613 1.141383
-0.030139 -0.030997 1.125413
0.144965 -0.168519 1.399581
0.233327 -0.084838 1.372871
-0.445941 0.020982 1.133038
-0.275568 0.010328 0.993471
-0.296070 -0.265894 1.188563
-0.475665 0.034604 1.239466
-0.027383 0.021830 0.938162
-0.234890 -0.332041 1.075065
-0.504498 -0.076151 1.320613
-0.343742 -0.190318 1.223111
-0.413900 0.085487 1.110831
-0.279934 -0.008255 1.001618
-0.372149 -0.122352 1.213776
-0.100105 0.057906 0.930985
-0.152452 -0.091751 1.045267
-0.316784 -0.194954 1.192966
-0.192305 -0.349220 1.208087
-0.431250 0.023956 1.152210
-0.197750 -0.030155 1.014468
-0.306422 0.037918 0.985016
-0.312610 0.028157 0.983045
-0.236759 0.065363 0.958661
-0.362717 -0.023182 1.083973
-0.464051 -0.009177 1.256021
-0.487362 -0.076175 1.308445
-0.284391 -0.314693 1.340351
-0.409122 -0.016675 1.545552
-0.306217 -0.403878 1.199399
-0.478928 0.007180 1.295374
-0.137591 -0.492733 1.366278
-0.204729 -0.443815 1.242314
-0.190901 -0.249496 1.096180
0.039141 0.055288 0.942931
0.047772 -0.141473 1.115557
0.026308 -0.377229 0.958154
-0.477409 -0.012564 1.221637
-0.306464 0.017949 1.543027
-0.119442 0.148681 0.951998
-0.185595 0.050933 1.014507
-0.401359 -0.040300 1.565682
-0.329965 0.139526 1.085726
-0.445344 -0.049683 1.147620
-0.152503 -0.221736 1.035873
-0.307149 -0.393574 1.207035
0.006781 -0.379922 0.947008
-0.282030 -0.374721 1.345292
-0.306619 0.216784 1.248554
-0.291414 -0.333594 1.101220
-0.300615 -0.045012 1.019178
-0.412049 -0.071755 1.096164
-0.290218 -0.225290 1.319269
-0.387324 -0.087388 1.106257
-0.034337 -0.204715 1.021653
0.122097 -0.405491 1.035045
-0.350377 0.137850 1.157313
0.004806 -0.081362 1.031709
-0.250853 -0.153624 1.109883
0.007647 -0.345279 1.211854
-0.280337 -0.315018 1.105028
-0.161161 -0.002789 0.974944
-0.033040 -0.206378 1.028497
-0.078054 -0.154856 1.036166
0.138904 -0.260780 1.368255
0.074174 -0.095044 1.104154
0.215261 0.039007 1.083895
0.296686 0.030495 1.282625
0.048297 -0.048569 1.058293
0.026319 -0.048422 1.045738
-0.481234 -0.059232 1.270820
-0.418943 -0.023741 1.518306
-0.404772 -0.136716 1.255065
-0.391676 -0.134993 1.516034
-0.176201 -0.345345 0.964849
-0.413834 -0.139235 1.514299
-0.187328 0.060562 1.651261
-0.210894 -0.233195 1.075665
-0.020841 -0.006041 1.021562
-0.452204 -0.013039 1.150094
-0.376788 -0.072614 1.080849
-0.202876 -0.376497 1.436494
-0.249738 -0.246370 1.084924
-0.260394 -0.057735 1.018002
-0.473078 0.030606 1.338781
-0.154965 -0.314081 1.460235
-0.491573 0.009870 1.211324
-0.501875 0.011483 1.260529
-0.268827 -0.290586 1.277188
-0.359045 -0.183431 1.166877
-0.415283 0.132799 1.350277
-0.223968 -0.420277 1.411029
-0.267182 -0.452113 1.371463
-0.363082 -0.171544 1.503194
-0.321245 -0.194473 1.333052
-0.250242 0.248985 1.281108
-0.030515 0.569620 1.351470
-0.166970 -0.150688 1.045234
-0.305016 -0.289039 1.248317
0.101100 0.457314 1.188452
0.026757 0.507881 1.248097
-0.303012 0.144593 1.043204
-0.414373 -0.110211 1.199007
-0.417328 -0.135983 1.292863
-0.182591 -0.169119 1.120531
-0.473785 0.024954 1.152193
-0.408660 0.085649 1.113206
-0.102685 -0.233763 1.283928
0.133594 0.466967 1.215925
-0.400759 -0.042992 1.103963
-0.283286 -0.309579 1.207644
-0.299798 0.020895 0.993854
-0.092699 -0.230494 1.029594
-0.271712 -0.346181 1.049306
-0.400090 -0.074587 1.130026
-0.451422 0.041705 1.135760
-0.448193 -0.135009 1.375925
0.126634 -0.091709 1.645613
0.174315 -0.145050 1.495021
0.061086 -0.472084 1.466119
0.205772 0.163823 1.264274
0.226135 0.107281 1.138976
0.226467 0.117844 1.456958
-0.290255 -0.404776 1.310857
-0.399400 -0.177349 1.450942
-0.169703 -0.167946 1.506700
-0.266283 -0.189500 1.465675
-0.296897 -0.255990 1.302612
-0.272044 -0.278189 1.231096
-0.460330 -0.094455 1.212355
-0.097111 0.544448 1.472748
0.217676 -0.052035 1.285028
0.215515 0.036809 1.084252
0.136915 -0.253681 1.283188
0.151030 -0.301579 1.280660
0.241395 0.033928 1.086853
0.242200 0.050180 1.283968
0.296404 -0.015604 1.482374
0.284787 -0.060202 1.463451
0.103382 0.066247 0.963959
0.028818 -0.046833 1.057285
0.109806 -0.258390 1.170522
0.148787 -0.255946 1.405435
0.293338 0.033044 1.282814
0.143136 0.003849 1.034852
0.112622 -0.173401 1.180156
0.143341 -0.161500 1.271642
0.259783 -0.032381 1.500339
0.040279 -0.084413 1.051794
0.130284 -0.293714 1.173990
0.158758 -0.241369 1.322845
-0.367219 -0.174080 1.357158
-0.450989 -0.123134 1.433076
-0.288190 -0.265744 1.139740
-0.314647 -0.213189 1.371060
-0.328113 -0.182291 1.449663
-0.458982 -0.025281 1.475123
-0.213170 -0.313043 1.002038
-0.311246 -0.470995 1.296280
-0.443037 0.037802 1.416846
-0.161864 -0.002974 0.973528
-0.373222 -0.096744 1.426661
-0.319638 0.060766 0.992701
0.154435 0.472168 1.078114
0.140570 0.466365 1.103319
-0.252353 -0.229503 1.491800
-0.368724 -0.138782 1.258027
-0.282574 0.089161 0.964981
-0.336681 -0.131098 1.200801
-0.424640 -0.067898 1.143586
-0.400441 -0.074632 1.132224
-0.193156 -0.097659 1.051716
-0.271567 -0.110804 1.177845
-0.114307 -0.115637 1.062498
-0.418615 -0.082460 1.171090
-0.353617 -0.129831 1.203331
-0.289091 -0.237877 1.275395
-0.426710 0.076833 1.142148
-0.307102 -0.313544 1.147907
-0.408744 0.002420 1.087733
-0.408952 0.072233 1.079206
-0.295311 -0.023047 1.031358
-0.333667 0.117178 1.044285
-0.368846 -0.124523 1.308318
-0.210720 -0.238754 1.143341
-0.407017 -0.131122 1.383490
-0.308379 -0.170102 1.380374
-0.212183 -0.177186 1.433088
-0.168963 -0.233002 1.473541
-0.419592 -0.112618 1.191050
-0.479087 0.056673 1.226807
-0.021670 -0.431255 1.451272
-0.286917 -0.193247 1.484023
-0.482115 0.023054 1.319829
-0.438309 -0.117403 1.441399
-0.330966 0.019375 1.595764
-0.049602 0.079581 0.949009
-0.050391 -0.261312 1.003768
-0.203921 -0.303732 1.085307
-0.010041 -0.420390 1.142744
-0.305941 0.065048 1.004084
-0.250121 -0.149183 1.115978
-0.264422 -0.090152 1.088528
-0.328326 0.153944 1.114997
-0.430101 0.081303 1.168126
-0.343534 -0.066573 1.070470
-0.253237 -0.147443 1.113077
-0.436145 -0.024874 1.145631
-0.379380 -0.087489 1.109522
-0.491278 -0.036339 1.213124
-0.320693 -0.209559 1.216675
-0.484680 -0.059612 1.271745
0.180663 0.162644 1.192846
0.105472 -0.142543 1.220192
-0.003940 -0.175380 1.056982
0.028223 -0.256334 1.006993
0.293492 0.037976 1.311136
0.033389 -0.011224 0.985670
0.278931 0.030861 1.296091
0.219057 -0.090529 1.279171
0.134779 -0.015794 1.080737
0.202088 -0.418755 1.133608
0.108397 -0.114383 1.149629
0.262791 0.002006 1.461529
0.171704 -0.334263 1.268683
0.219090 0.093334 1.122393
-0.317896 0.067564 1.092000
-0.474784 0.001095 1.441063
-0.456400 -0.108138 1.443810
-0.338642 -0.452119 1.347901
-0.296878 -0.200071 1.481864
-0.243658 -0.261201 1.068429
-0.421089 0.101169 1.157005
-0.371474 -0.075792 1.587936
-0.397574 -0.147437 1.404939
-0.348701 -0.013143 1.602886
-0.326875 -0.369855 1.095747
-0.089340 0.006795 0.919028
-0.185416 -0.401517 1.339543
0.014311 -0.279725 0.943056
-0.181581 -0.163052 1.096565
-0.346546 -0.364711 1.128018
-0.493201 -0.063020 1.265617
0.001057 -0.006840 0.942910
-0.244968 -0.382671 1.091378
-0.307394 -0.335781 1.167936
-0.341444 -0.132084 1.198805
-0.234324 -0.321110 1.398808
0.185166 -0.008009 1.089455
0.006036 0.076577 1.049319
0.147585 -0.162274 1.479846
0.251194 -0.034651 1.200459
0.213057 -0.122322 1.351334
0.029363 -0.160121 1.677507
0.144086 -0.030868 1.051947
0.137695 -0.333938 1.109928
0.013851 -0.146436 1.681227
0.084302 -0.145372 1.107659
0.283704 -0.002171 1.386997
-0.497323 -0.013566 1.233765
-0.299128 -0.095789 1.661888
-0.346736 0.104895 1.485460
-0.446221 -0.117773 1.485516
-0.455685 -0.119959 1.486079
-0.185337 -0.339925 0.964358
-0.159535 -0.434401 1.539752
-0.165827 -0.434246 1.544843
-0.305676 -0.338910 1.154201
-0.327094 0.031910 1.590095
-0.376960 0.075219 1.508804
-0.469614 0.038219 1.251461
-0.286056 -0.242956 1.147886
-0.262429 -0.276581 1.121333
-0.261998 -0.294144 1.105615
-0.413911 0.109986 1.402623
-0.292348 0.108448 0.991234
-0.420532 -0.052080 1.133092
-0.382041 0.051141 1.061685
-0.308276 -0.305778 1.209233
-0.199137 -0.253216 1.165322
-0.268590 -0.279735 1.156891
-0.465419 0.050995 1.214211
-0.410837 -0.136106 1.297124
-0.145302 0.140907 0.956754
-0.487709 -0.097666 1.376116
-0.201091 -0.070427 0.996935
-0.265962 -0.235558 1.164828
-0.172270 -0.200996 1.096338
-0.112319 -0.023709 0.998831
-0.152197 -0.103324 1.116322
-0.291622 -0.036916 1.026997
-0.038674 0.014572 1.162626
-0.356725 -0.034347 1.055915
-0.432253 0.080258 1.166409
0.117304 -0.138730 1.624014
-0.095489 -0.214341 1.554276
0.243491 -0.087588 1.396127
-0.449882 0.024025 1.384576
-0.252343 -0.183035 1.184062
-0.476509 -0.048856 1.201455
0.176257 -0.333487 1.341321
0.253680 -0.055520 1.473388
0.081488 0.088991 0.958874
0.245617 0.098782 1.178899
0.112757 -0.024784 1.025541
0.260032 -0.094076 1.435295
0.155800 0.151969 1.096561
0.074651 0.172217 1.048721
0.111670 -0.259072 1.171071
0.159630 -0.180011 1.325387
0.136794 -0.033015 1.076788
0.239293 -0.134425 1.396057
0.007043 -0.013224 0.968740
0.097344 0.007746 0.977643
0.216981 -0.101157 1.574771
0.249693 0.018498 1.210156
0.223588 -0.038162 1.577865
0.264303 0.066146 1.175636
0.254500 0.027947 1.124895
0.163441 0.178679 1.181619
0.160766 -0.304526 1.344497
0.089924 -0.126484 1.135788
0.084978 -0.173760 1.179816
0.228925 -0.078166 1.571790
0.132399 -0.008957 1.049212
0.239171 -0.017578 1.176756
-0.482907 -0.091314 1.367364
-0.491648 0.012041 1.212226
-0.327661 -0.165481 1.232420
-0.459920 -0.087996 1.276310
-0.417413 -0.138178 1.445081
-0.295854 -0.194124 1.541302
-0.440146 -0.134710 1.376134
-0.410331 -0.111530 1.153664
-0.433049 -0.106510 1.293840
-0.405065 0.139970 1.284310
-0.295591 -0.018320 0.973456
-0.463711 0.050464 1.212974
0.111745 0.456344 1.196366
0.123652 -0.219011 1.389248
0.277047 0.016339 1.176491
0.116809 -0.191295 1.163405
0.193316 -0.087178 1.244763
0.074006 -0.155610 1.660680
0.239700 -0.033100 1.187517
0.086047 -0.240812 1.455386
-0.465396 -0.035979 1.156612
-0.417830 0.133711 1.353905
-0.440164 -0.036639 1.442075
-0.313363 -0.412074 1.252635
-0.407772 -0.159907 1.363754
-0.361688 0.033007 1.564898
-0.430285 0.085126 1.423286
-0.463609 -0.064754 1.491264
-0.377909 -0.175418 1.356214
-0.310568 -0.323072 1.205198
-0.448878 -0.001061 1.495503
-0.372899 -0.079051 1.589661
-0.246562 0.035375 1.632254
-0.449177 0.059220 1.352178
-0.356004 0.160590 1.171192
-0.010619 -0.025892 1.011552
-0.463250 -0.132335 1.365091
-0.229364 -0.223580 1.212368
-0.256584 -0.217249 1.300062
-0.299988 -0.250237 1.311388
-0.449283 -0.129708 1.376666
-0.212463 -0.419349 0.985869
-0.356812 0.151783 1.434387
-0.201822 -0.211971 1.529904
-0.497116 -0.016312 1.238138
-0.383410 -0.146985 1.528799
-0.291968 -0.185124 1.566231
-0.364536 0.008458 1.599715
-0.438999 -0.101637 1.223181
-0.449893 -0.123631 1.433218
-0.486311 -0.064267 1.259742
-0.295463 -0.331211 1.256747
-0.333881 -0.370745 1.095692
-0.496348 -0.035729 1.269882
-0.472270 -0.074373 1.327450
-0.401185 -0.121358 1.571635
-0.242875 -0.314477 0.986411
-0.276730 -0.209391 1.445800
-0.203843 -0.441807 1.387756
-0.293108 -0.117804 1.096468
-0.207806 -0.425910 1.494927
-0.335875 -0.172925 1.533657
-0.390732 -0.124374 1.568488
-0.362435 -0.138770 1.573266
-0.292139 -0.404608 1.216872
-0.377329 0.022835 1.567156
-0.406935 -0.060119 1.538325
-0.172765 -0.192800 1.619115
-0.470148 -0.103806 1.421016
-0.427997 -0.021950 1.523746
-0.264488 -0.315372 1.362923
-0.265414 -0.452004 1.373268
-0.417559 0.035029 1.504640
-0.426270 -0.024736 1.520509
-0.285922 -0.234002 1.371662
-0.339092 -0.184962 1.269747
-0.358505 -0.149717 1.274776
-0.454870 -0.050830 1.441181
-0.326594 -0.125156 1.632153
-0.328056 0.046210 1.319892
-0.316419 -0.182223 1.422546
-0.358708 -0.187027 1.298009
-0.417279 -0.132675 1.388424
-0.234187 -0.379333 1.397041
0.068515 0.490582 1.144431
0.081654 -0.339949 0.994171
-0.249221 0.059912 0.934518
-0.124895 -0.355881 0.929939
-0.321422 -0.428098 1.266936
-0.425201 0.053673 1.097902
-0.431509 0.004179 1.123240
-0.262194 -0.206653 1.136793
-0.256847 -0.296115 1.350245
-0.412550 -0.155280 1.375111
-0.415336 0.088736 1.430645
-0.486091 0.023212 1.321767
-0.268213 0.026073 0.978614
-0.369580 -0.073402 1.089131
-0.305140 0.019756 0.992602
-0.460005 0.005618 1.121434
-0.464605 -0.070268 1.225600
-0.420807 0.002353 1.009756
-0.218849 -0.095104 1.056837
-0.298651 -0.351444 1.269784
-0.415033 0.083848 1.109682
-0.399715 -0.075446 1.124956
0.012185 -0.049795 0.979555
-0.068512 -0.017029 1.210089
-0.220299 -0.233771 1.056777
-0.040507 0.565388 1.343999
0.146359 0.473556 1.109972
-0.059905 0.065200 0.928391
-0.347180 -0.145952 1.342793
-0.434609 -0.096127 1.133645
-0.102787 0.071308 0.983119
-0.150205 -0.167129 1.210469
-0.148550 0.088376 1.115512
-0.231719 -0.220293 1.519039
-0.267934 -0.359861 1.071246
-0.408045 0.146082 1.320899
-0.413505 0.113045 1.404306
-0.295695 -0.205381 1.210021
-0.404418 -0.142920 1.251714
-0.023040 -0.110630 1.067550
-0.379119 0.007551 1.059080
-0.350792 -0.130503 1.200440
-0.383620 0.003116 1.053274
-0.331340 0.141230 1.102582
-0.367212 -0.017205 1.044395
-0.292743 0.178126 1.122015
-0.271789 -0.121815 1.116473
-0.314127 -0.254330 1.198446
-0.177451 0.079718 0.922836
-0.130792 -0.055005 1.015307
-0.268292 -0.034921 1.019742
-0.378531 0.133345 1.192551
-0.407609 -0.189471 1.254391
-0.660111 0.161338 1.323584
-0.016849 -0.124180 1.341411
-0.307503 -0.387783 1.316859
-0.242538 -0.417592 1.363618
-0.292575 -0.185461 1.164950
-0.180678 -0.200657 1.087693
-0.210833 -0.310527 1.082565
-0.224982 -0.105326 1.068148
-0.415111 -0.136367 1.395850
-0.495526 -0.006754 1.271828
-0.285587 -0.261660 1.186485
-0.241801 0.028739 0.959913
-0.295936 -0.278605 1.123245
-0.313799 -0.286217 1.202734
-0.418943 0.060158 1.438794
-0.416096 0.016919 1.492471
-0.382543 -0.173726 1.237164
-0.283321 -0.252876 1.386318
-0.240503 -0.039234 1.634875
-0.392809 0.100678 1.484344
-0.330513 -0.420994 1.190109
-0.145925 -0.466701 1.335523
-0.333570 -0.185782 1.293281
-0.394791 -0.124039 1.383333
-0.482185 -0.145849 1.253415
-0.336509 -0.418494 1.230203
-0.396300 -0.069325 1.538557
-0.179549 -0.111692 1.517261
-0.378062 0.074522 1.504864
-0.362895 -0.124120 1.599930
-0.176177 -0.241900 1.491384
-0.440678 0.017103 1.488838
-0.461870 0.062913 1.134879
-0.276734 -0.325798 1.067490
-0.432937 -0.123030 1.251007
0.029146 -0.486634 1.165411
-0.132582 -0.403976 1.505399
-0.292123 -0.278616 1.121705
-0.410653 0.145046 1.273635
-0.449688 -0.123689 1.432655
-0.301905 -0.456744 1.336652
-0.400814 -0.035456 1.549477
-0.467326 0.003128 1.441046
-0.440881 -0.125423 1.327188
-0.473738 -0.048245 1.171613
-0.341516 -0.178021 1.287711
-0.324068 -0.226824 1.246312
-0.454203 0.077467 1.330894
-0.280302 -0.429939 1.286646
-0.321344 -0.164124 1.230994
-0.468501 -0.100422 1.314507
-0.296357 -0.393233 1.251714
-0.334165 -0.177878 1.186151
-0.415236 -0.128084 1.521523
-0.296268 -0.241933 1.392655
-0.494387 -0.010961 1.364638
-0.236326 -0.339577 1.306189
-0.084899 0.343719 1.431313
-0.259973 -0.339729 1.377349
-0.338866 -0.166151 1.231604
-0.361494 -0.118463 1.599477
-0.325307 -0.184637 1.306681
-0.295122 -0.395114 1.250863
-0.327800 -0.158695 1.201537
-0.273421 -0.345504 0.986125
-0.295849 -0.367549 1.047100
-0.300107 -0.432855 1.260429
-0.290000 -0.348516 1.318149
-0.452832 -0.040669 1.136246
-0.407465 0.040049 1.503359
0.204788 -0.051567 1.193660
0.037173 -0.329372 1.416496
0.120332 -0.269106 1.173058
0.139470 -0.148567 1.436653
0.041106 0.052104 0.941013
0.001690 -0.297343 0.933072
-0.099441 0.039443 0.927393
0.071617 0.176560 1.384383
-0.051304 0.026911 0.936148
-0.015819 0.125612 0.947590
-0.399426 -0.081734 1.127078
-0.028521 -0.023075 0.952816
-0.018019 0.210229 1.292917
0.067068 -0.014992 0.982575
0.138791 -0.443127 1.175158
-0.092985 -0.276055 1.200120
-0.461125 -0.043157 1.441960
-0.336747 -0.175903 1.345549
-0.332417 -0.398988 1.190188
-0.482177 -0.051137 1.128324
-0.312607 -0.108983 1.137584
-0.221956 -0.164034 1.081706
-0.353429 0.175012 1.365125
-0.484249 0.017989 1.202588
-0.411329 0.016001 1.093657
-0.143703 -0.293762 1.490836
-0.431899 -0.085290 1.211077
-0.251698 -0.143538 1.112103
-0.508134 -0.055101 1.284250
-0.464875 -0.033220 1.180506
-0.489080 -0.076960 1.308138
-0.350925 -0.129530 1.201893
-0.463702 0.050439 1.215144
-0.207420 -0.076579 1.092489
-0.502634 -0.069657 1.328626
0.177074 -0.302682 1.255662
0.097475 -0.080488 1.118830
0.127263 -0.096740 1.162242
-0.013494 0.074397 0.927546
0.270966 0.063747 1.174974
0.102818 0.087006 0.982237
0.080230 -0.459541 1.440008
-0.233348 -0.218989 1.270598
-0.445846 0.094550 1.252720
-0.316403 -0.183040 1.280738
-0.476460 -0.089800 1.304165
-0.115099 -0.205073 1.305529
-0.358535 -0.051417 1.608992
-0.209257 0.044037 1.007260
-0.467423 0.050507 1.209213
-0.251287 -0.177266 1.175164
-0.145927 -0.205242 1.297479
-0.205475 -0.134138 1.184877
-0.439387 0.010089 1.162044
-0.479837 -0.072272 1.214264
-0.498986 -0.011730 1.283190
-0.301390 -0.318907 1.248068
-0.420017 -0.015039 1.048521
-0.332965 -0.011050 1.027337
-0.329090 -0.418928 1.184896
-0.223230 -0.285792 1.278692
-0.251029 -0.397003 1.406565
-0.322499 -0.451304 1.263252
-0.425326 -0.124227 1.538217
-0.270683 -0.235964 1.435402
-0.303383 -0.242834 1.360603
-0.391551 -0.153275 1.337658
-0.428347 -0.138936 1.443788
-0.362506 -0.152145 1.279527
-0.299438 -0.257704 1.299558
-0.436936 0.000435 1.497147
-0.190296 -0.014721 0.953353
-0.166895 -0.309679 1.417484
-0.322625 -0.419087 1.186383
-0.420729 0.117730 1.340486
-0.419152 0.084848 1.112331
-0.421797 -0.121947 1.540168
-0.260818 -0.144568 1.108709
-0.330826 -0.387080 1.196290
-0.476805 -0.095399 1.384370
-0.373627 0.001126 1.010349
-0.443965 -0.109886 1.463497
-0.444756 0.098658 1.252482
-0.489443 -0.049912 1.222689
-0.445981 0.088872 1.300985
0.051165 -0.014662 0.985687
0.156295 -0.196160 1.245744
-0.247759 0.076688 1.119868
-0.299510 -0.356261 1.242434
-0.326802 0.077357 0.992642
-0.371892 -0.121750 1.218159
-0.209129 0.068605 0.944253
-0.222914 -0.172781 1.043501
-0.186048 -0.336554 1.305597
-0.150780 -0.169287 1.430909
-0.287602 0.000968 1.372661
-0.255040 -0.295099 1.358923
-0.284625 -0.302931 1.279649
-0.315142 -0.440578 1.309552
-0.328909 -0.130596 1.626145
-0.371191 -0.064133 1.592367
-0.293020 -0.256842 1.179833
-0.307409 -0.345086 1.128926
-0.491618 -0.005582 1.279906
-0.423660 -0.014448 1.094484
-0.319623 -0.142154 1.329491
-0.452647 0.108270 1.198886
-0.024828 -0.156790 1.683087
0.087430 0.518630 0.994805
-0.471759 -0.003140 1.422922
-0.462543 -0.033090 1.464935
-0.277264 -0.002512 1.007510
-0.356545 0.112377 1.496745
-0.290685 0.397685 1.151692
-0.386703 -0.146716 1.413785
-0.300525 -0.095232 1.654988
-0.494848 -0.014615 1.315073
-0.480087 0.068291 1.263454
-0.339184 -0.118028 1.345667
-0.350732 0.027054 0.987343
0.170881 0.044773 1.586803
0.120970 -0.167017 1.222713
0.249079 -0.035306 1.198834
0.169731 -0.075082 1.218015
0.151477 -0.034334 1.137741
0.195799 -0.080187 1.226985
0.047458 -0.186336 1.517018
0.135701 -0.307966 1.142987
0.108715 -0.260220 1.037432
0.281354 0.022358 1.231177
0.178669 0.176962 1.236898
0.268159 0.024969 1.233718
0.139163 -0.290500 1.078829
-0.234679 -0.342742 1.046837
-0.484619 -0.078979 1.394168
-0.302047 -0.338951 1.234846
-0.137190 -0.237121 1.088031
-0.346447 -0.138459 1.268780
-0.293873 -0.178686 1.190879
0.041863 0.028134 0.937872
-0.349130 0.018064 1.580878
-0.299516 0.181267 1.140844
-0.213892 -0.157325 1.685035
-0.468376 -0.119128 1.410365
-0.338646 -0.118423 1.171541
-0.476148 -0.099184 1.443296
-0.317945 -0.110443 1.136518
-0.475243 -0.048343 1.203143
-0.432838 -0.085385 1.207585
-0.277029 -0.123304 1.115453
-0.469631 -0.010730 1.256010
-0.298101 -0.351886 1.212175
-0.198676 -0.090120 1.071519
-0.296932 0.148190 1.050758
0.036034 -0.025694 1.055783
-0.490758 -0.111116 1.427862
-0.313517 -0.036573 1.007913
-0.288782 -0.431086 1.235694
-0.277302 -0.433957 1.246220
-0.283263 -0.321742 1.102368
-0.293355 -0.208801 1.209399
-0.436754 -0.024422 1.129218
-0.087554 -0.285782 1.007680
-0.494573 -0.013975 1.314956
-0.253259 0.039735 0.913104
-0.234010 -0.076442 1.067534
0.281503 -0.038181 1.306770
0.005326 -0.250844 1.020254
-0.144947 0.040419 0.950981
0.017614 -0.084150 1.068772
-0.185049 -0.258494 1.068783
-0.383762 -0.005243 1.040501
-0.410050 0.077164 1.072506
-0.315824 -0.195899 1.178727
-0.271832 0.010851 0.989203
-0.360706 0.046639 1.026770
-0.444828 0.020217 1.132473
-0.487038 -0.004814 1.296284
-0.333322 0.146548 1.399354
-0.329353 -0.186191 1.306188
-0.131957 0.163931 0.995599
-0.453015 0.041971 1.438318
-0.464069 -0.063753 1.228352
-0.242823 -0.338841 1.404774
-0.496371 -0.018889 1.354923
-0.323186 -0.426232 1.265771
-0.393507 -0.034731 1.076420
-0.497271 -0.036155 1.273053
-0.446064 -0.121634 1.346290
-0.461131 -0.093067 1.329038
-0.344618 -0.167001 1.499073
-0.288387 -0.360596 1.108946
-0.419483 0.119316 1.343827
-0.460931 0.072119 1.348604
-0.298564 -0.359956 1.108073
-0.311495 -0.223069 1.306547
-0.245506 -0.302415 1.309770
-0.224200 -0.477261 1.323179
-0.457217 -0.059644 1.494215
-0.188714 -0.203033 1.620433
-0.486264 -0.001913 1.225560
-0.187220 -0.250167 1.299944
-0.170131 -0.332182 1.240443
-0.309095 -0.274596 1.268683
-0.441109 0.047751 1.140354
-0.305116 -0.335646 1.231547
-0.255402 -0.237718 1.383161
-0.475900 -0.083337 1.415133
-0.113140 0.519623 1.375244
-0.317109 -0.389985 1.109687
-0.475493 -0.049022 1.201257
-0.435013 0.011267 1.159708
-0.221145 -0.001466 1.018775
-0.400150 -0.043454 1.105832
-0.313524 -0.192561 1.201211
0.130336 -0.201284 1.192260
0.142331 -0.141785 1.437722
0.103070 -0.293427 1.037684
0.206598 -0.372795 1.293671
-0.306728 -0.052048 1.651439
-0.300972 -0.100959 1.091048
-0.041216 0.013717 1.017934
-0.442234 -0.115210 1.488475
-0.363921 -0.157961 1.340125
-0.045469 -0.019730 0.958457
-0.387741 -0.009462 1.059516
0.008670 -0.007824 0.947895
-0.084893 0.224687 1.355738
-0.289357 -0.373802 1.046465
-0.465978 -0.008255 1.339041
-0.317974 -0.387273 1.111260
-0.345686 -0.472772 1.375941
-0.495060 -0.000564 1.218710
-0.296310 -0.357258 1.291009
-0.270439 -0.308649 1.324320
-0.473998 0.051334 1.269355
-0.229001 0.213600 1.462046
-0.193571 -0.329240 0.959274
-0.268362 -0.206282 1.262736
-0.290532 -0.314100 1.315475
-0.462396 0.065413 1.238745
-0.460143 -0.094956 1.478470
-0.435460 -0.105603 1.263743
-0.408188 0.135172 1.279666
-0.457952 -0.090162 1.239090
-0.460326 -0.035041 1.182353
-0.423229 -0.054953 1.132463
-0.404090 0.116123 1.160115
-0.420901 -0.097887 1.233985
-0.393044 -0.072131 1.102001
-0.270223 -0.124298 1.119450
-0.279496 -0.309055 1.148188
-0.415660 0.009909 1.132522
-0.208957 0.068812 1.087853
-0.492104 -0.042072 1.394089
-0.054436 -0.382840 1.057281
-0.137685 0.335002 1.633430
-0.199604 -0.281145 1.030987
-0.196724 -0.269389 1.209653
-0.486111 0.004697 1.349101
-0.388621 -0.100542 1.158693
-0.426345 -0.098972 1.227691
-0.475085 -0.063482 1.171612
-0.290789 -0.250816 1.317126
-0.209035 0.046396 0.940756
-0.282596 -0.385797 1.332432
-0.146152 -0.365646 1.238727
-0.054962 0.255822 1.241860
-0.363471 -0.172669 1.357786
-0.288119 -0.294782 1.358167
-0.269826 -0.338745 1.377397
-0.417203 -0.139859 1.443825
-0.425772 0.085254 1.429354
-0.451318 -0.056725 1.489095
-0.251372 -0.252975 1.420516
-0.337959 -0.157109 1.318234
-0.166304 -0.333081 0.967805
-0.326001 -0.434995 1.316531
-0.250518 0.244595 1.271060
-0.188171 -0.265618 1.060699
-0.314460 -0.356040 1.232929
0.115360 -0.217311 1.397014
0.087647 -0.233287 1.133575
-0.184055 -0.315825 1.096099
-0.357684 0.156961 1.178968
-0.310969 -0.475630 1.394737
-0.424326 0.118168 1.338209
-0.431633 -0.099564 1.225776
-0.259034 -0.118128 1.092289
0.010136 -0.426797 0.998409
-0.113296 -0.348366 1.269046
0.090752 -0.361612 0.975673
-0.011050 -0.200948 1.177529
-0.321274 -0.429843 1.313431
-0.456694 -0.060797 1.181313
-0.334839 0.116827 1.041574
-0.403386 0.137685 1.282818
-0.456843 0.027786 1.411931
-0.447866 0.085003 1.326878
-0.260786 -0.301262 1.232519
-0.074552 -0.414189 1.250644
-0.363598 -0.062220 1.594856
-0.465594 -0.002750 1.415852
-0.213801 -0.389544 1.435963
-0.153603 0.262026 1.394672
0.087176 -0.019124 1.032116
-0.122527 -0.134324 1.050104
0.071795 0.168435 1.035509
0.136006 0.070809 0.973595
0.101711 0.066572 0.971928
-0.100885 0.057354 0.934204
0.201330 -0.044013 1.135533
-0.059828 0.226250 1.108733
0.176681 -0.102175 1.203113
-0.359259 -0.037777 1.055401
0.061469 0.016025 0.976992
0.062649 -0.149657 1.186253
0.073149 0.117395 0.990773
-0.280655 -0.009038 0.996230
-0.283801 -0.164098 1.123185
-0.284723 -0.152414 1.137301
-0.038311 -0.024502 0.975062
-0.167126 0.042775 0.927078
0.109952 0.121706 1.015079
-0.084261 0.139936 0.949026
-0.114437 -0.087193 1.041219
-0.313265 -0.004381 1.009407
-0.270855 -0.333661 1.055811
-0.277521 0.009481 0.994138
0.145417 -0.305115 1.033321
-0.318989 -0.110826 1.122473
-0.482601 -0.021193 1.143013
-0.124290 -0.257870 0.957949
-0.115101 0.043226 0.947935
-0.000233 -0.107519 1.084825
-0.068059 -0.210980 1.111432
-0.283672 0.165141 1.230197
-0.207452 -0.066501 1.045587
-0.250111 -0.305608 1.059589
0.191091 0.025142 1.039630
-0.087490 -0.051843 1.034503
0.099975 -0.068068 1.047944
0.101583 -0.364125 1.000559
-0.254426 0.046657 0.959161
-0.079329 -0.319325 0.949479
-0.139252 0.159111 0.969046
-0.361081 -0.036300 1.054901
-0.273874 -0.338932 1.071982
0.144827 -0.397276 1.083955
-0.334702 0.114899 1.040722
-0.127011 -0.055039 1.022644
-0.237220 -0.252893 1.081756
-0.282151 -0.199268 1.123470
0.062610 0.164861 1.024876
-0.163147 -0.002499 0.976460
-0.225858 -0.321309 1.036773
-0.280632 -0.149784 1.119464
-0.316783 -0.003242 1.015740
0.043070 0.515734 1.263482
-0.313602 -0.225076 1.305311
0.044439 0.518189 1.266109
-0.229989 0.039423 1.630048
-0.127754 -0.353238 1.169009
-0.200438 -0.045246 1.153361
-0.175293 -0.368366 1.345419
-0.357252 -0.165560 1.306497
-0.331652 -0.175285 1.386570
-0.318363 -0.199312 1.367624
-0.433371 -0.128341 1.365335
-0.280618 -0.326337 1.067507
-0.317853 -0.141793 1.141464
-0.485729 0.040111 1.306410
-0.488758 0.021445 1.320719
-0.458945 -0.046376 1.332626
-0.459475 -0.052266 1.372355
0.039542 -0.190614 1.506480
-0.318040 0.007445 1.031460
-0.459173 -0.070231 1.438674
-0.241666 -0.390962 1.481211
-0.137855 0.518852 1.381999
-0.454858 -0.054031 1.369575
-0.505715 0.002838 1.257135
-0.153281 -0.027995 1.678412
-0.367485 -0.151110 1.282190
-0.310352 -0.343811 1.130253
-0.334895 -0.381202 1.178900
0.076972 0.352111 1.117541
-0.038891 0.067955 0.913133
-0.353395 -0.140645 1.239362
-0.429235 0.032678 1.437578
-0.410141 0.131717 1.256487
-0.252572 -0.207191 1.141029
-0.362296 -0.169621 1.128535
-0.439268 -0.085083 1.206150
-0.268560 -0.309811 1.149156
-0.215585 0.162218 0.969053
-0.319522 -0.134232 1.127956
-0.061366 0.191461 1.084854
-0.216762 -0.000654 1.051733
-0.118721 -0.005306 0.975728
-0.091600 -0.025386 0.986456
-0.057288 0.025060 0.950467
-0.267485 -0.293867 1.092377
-0.146301 0.132023 0.950806
-0.499190 -0.303379 1.234118
-0.100191 0.007670 0.942180
-0.116296 -0.087565 1.038808
0.063769 -0.278322 1.034916
-0.083028 -0.013469 0.969679
-0.070504 -0.246074 1.030211
-0.079012 -0.084159 1.044109
-0.174161 -0.292660 1.028629
-0.249206 0.113035 0.974326
0.233708 -0.077632 1.226879
-0.211413 -0.261313 1.141774
-0.312723 -0.273088 1.265613
-0.311107 -0.192796 1.202922
-0.423878 -0.068002 1.144741
-0.503181 -0.068146 1.327002
-0.388661 -0.135457 1.231921
-0.475994 -0.047720 1.203133
-0.415068 0.110888 1.403219
-0.213807 -0.090821 1.060098
-0.037633 0.074920 0.908337
0.101525 -0.247717 1.391308
0.175363 0.361073 1.523302
0.254722 -0.065185 1.456469
0.069507 -0.168158 1.126794
0.235566 -0.072743 1.264096
0.197993 -0.331411 1.266084
0.211142 0.118087 1.142591
0.171817 -0.001026 1.053557
0.029816 -0.080706 1.030132
0.041445 -0.238642 1.041668
0.103775 -0.186997 1.572600
-0.001982 0.125469 0.944480
0.065190 -0.190135 1.600841
-0.244150 0.481616 1.227713
-0.395108 0.149989 1.274892
-0.183838 -0.241527 1.493162
-0.178931 -0.383601 1.436072
-0.301671 0.121259 1.540139
-0.297448 0.046977 1.591152
-0.507908 -0.044925 1.225585
-0.312099 -0.284286 1.203565
-0.326002 -0.193776 1.352772
-0.299600 -0.206613 1.420447
-0.334996 -0.399167 1.215628
-0.269107 -0.195684 1.479548
-0.127433 -0.238168 1.033387
-0.314901 -0.058730 1.627486
-0.337018 -0.130025 1.571812
-0.456880 -0.032904 1.459776
-0.336824 -0.093961 1.630877
0.061723 -0.124289 1.689609
-0.250464 -0.312760 1.156316
-0.364883 -0.137628 1.258590
-0.327232 -0.165031 1.235271
-0.280189 -0.374701 1.199742
-0.315661 -0.376231 1.114758
-0.145983 -0.264020 1.500615
-0.229972 0.009314 0.941138
-0.213897 -0.448779 1.437365
-0.485116 0.023658 1.322712
-0.490238 -0.085464 1.403345
-0.403786 -0.109796 1.199563
-0.279883 0.087366 0.962281
-0.128044 -0.314765 0.965388
-0.167817 -0.332244 0.963352
-0.099741 0.056971 0.936521
-0.420196 -0.016771 1.074866
-0.344034 -0.186478 1.292581
0.148412 -0.362969 1.027542
0.019787 0.129657 1.016109
-0.490063 -0.082229 1.241757
0.122673 -0.434185 1.371727
-0.266770 -0.272275 1.188537
-0.315552 -0.004276 1.013206
0.100586 -0.307470 1.016340
-0.467939 -0.072196 1.182023
-0.287833 -0.024451 1.040588
-0.178197 -0.315978 0.996433
-0.225972 -0.263776 1.494694
-0.227690 -0.350463 0.995088
-0.176847 0.090550 0.948696
0.002291 -0.381013 0.949177
-0.412683 0.131927 1.254232
-0.329425 -0.399065 1.268375
-0.237831 -0.330387 1.072885
-0.219562 -0.236903 1.137651
-0.320396 -0.451394 1.262801
-0.387973 0.097495 1.072629
-0.396839 0.094825 1.448456
-0.508785 0.025470 1.160299
-0.461804 -0.031943 1.183061
-0.308137 -0.135864 1.154582
-0.307732 -0.067821 1.049895
-0.479816 -0.096082 1.381367
-0.354892 -0.130221 1.202413
-0.274543 -0.336853 1.104840
-0.301575 -0.347943 1.129760
-0.414808 -0.146302 1.414800
-0.486121 -0.034583 1.385842
-0.291218 -0.373148 1.270174
-0.274745 -0.268327 1.143177
-0.135870 -0.288618 0.998215
-0.253239 -0.120970 1.124108
-0.231692 -0.168537 1.159772
-0.219446 -0.043263 1.038317
-0.268658 -0.089877 1.082926
-0.233984 -0.417675 1.360832
-0.448823 -0.001776 1.494001
-0.399521 0.031314 1.531058
-0.488816 0.037749 1.404004
-0.483899 -0.010637 1.417340
-0.430273 -0.134389 1.443943
-0.421422 0.134657 1.282691
-0.312704 -0.347513 1.130356
-0.229329 0.167381 1.071458
-0.419000 0.125866 1.359484
-0.285510 0.052158 1.591245
-0.485944 0.032952 1.274415
-0.224038 -0.386118 1.078395
-0.264966 0.157498 1.143610
-0.194622 -0.383921 1.042876
-0.010071 -0.267698 0.990268
-0.383865 0.096913 1.083011
-0.420348 0.010866 1.070584
-0.178597 -0.033143 1.007644
-0.131016 0.552972 1.431917
-0.327779 -0.233749 1.222382
0.023408 -0.362630 0.958002
-0.258442 -0.041514 1.004475
-0.482365 -0.015993 1.151139
-0.329667 -0.047834 1.061460
-0.514287 -0.056531 1.260205
-0.311087 0.174498 1.125740
-0.239524 -0.256255 1.094993
-0.346337 0.019099 1.015567
-0.384557 0.132049 1.103144
-0.027462 -0.297285 0.965895
-0.346780 0.018202 1.014225
-0.445214 -0.026460 1.109277
-0.512803 -0.057609 1.246813
-0.241188 -0.258340 1.095200
-0.299609 -0.061757 1.034965
-0.295923 -0.021100 1.034390
-0.366722 0.110918 1.077835
-0.269821 -0.114549 1.109795
-0.180501 -0.247619 1.110920
-0.497513 -0.044082 1.240336
-0.313215 -0.338248 1.091174
-0.178869 -0.314615 0.993877
-0.093159 0.163012 0.969542
0.121454 -0.546390 1.357483
-0.101638 0.055328 0.900316
-0.127831 0.008758 0.976304
-0.152252 0.061537 0.960292
-0.351004 -0.007856 1.040512
-0.316148 -0.250215 1.188598
0.094871 -0.291565 1.088689
-0.248028 0.018797 0.981836
-0.282768 -0.336442 1.142867
-0.244816 0.024937 1.049464
-0.314849 -0.334116 1.220860
-0.285481 -0.223059 1.186180
-0.327784 0.326142 1.644604
-0.007541 0.168330 1.196320
-0.309002 -0.213629 1.428773
-0.171095 -0.192678 1.619477
-0.283323 -0.400783 1.312480
-0.291169 -0.194494 1.478713
-0.461396 -0.009773 1.427939
-0.405495 -0.095712 1.151882
-0.154048 -0.069064 1.029099
-0.291177 0.103785 0.986323
-0.191911 -0.455205 1.462423
-0.422372 -0.033489 1.115186
-0.327200 -0.372821 1.138008
-0.208937 -0.253199 1.093563
-0.447122 -0.031791 1.189134
-0.427947 0.115176 1.225659
-0.435504 -0.106898 1.262888
-0.419291 0.066761 1.421365
-0.483893 0.005917 1.350308
-0.358540 -0.154133 1.269100
-0.484485 -0.082034 1.408357
-0.241935 -0.180804 1.140233
-0.425000 0.109890 1.188450
-0.451527 -0.090695 1.244115
-0.354349 0.160637 1.177568
-0.412861 -0.146154 1.414176
-0.382069 -0.009313 1.061074
-0.211436 0.038171 0.989101
-0.315634 -0.110959 1.132749
-0.355606 0.047723 1.029478
-0.271813 -0.012946 0.999483
-0.331010 0.180473 1.180028
-0.154303 -0.175911 1.064037
-0.275217 -0.292027 1.338132
-0.233578 -0.330845 1.075103
-0.315706 -0.060111 1.046496
-0.296289 -0.216696 1.360658
-0.154537 -0.178443 1.065238
0.006111 0.058945 0.932972
0.081636 -0.019576 1.007720
0.141464 0.072900 0.997345
-0.156630 -0.198914 1.045975
-0.134009 0.186975 1.028293
0.258623 -0.095502 1.287333
0.153962 0.074927 1.057042
-0.381593 -0.006462 1.046366
-0.085524 0.163859 0.995584
-0.414430 0.059498 1.063977
-0.325392 0.001336 0.991674
-0.070674 0.009873 0.954299
-0.217137 0.057088 0.944890
0.045758 -0.263385 1.051174
0.038976 0.071193 0.945060
0.141554 -0.140598 1.208062
0.169462 0.009761 1.093737
-0.324413 -0.091405 1.076892
-0.414800 0.018784 1.046670
-0.135627 -0.298737 1.019560
-0.326570 0.086294 1.003207
0.054483 -0.137402 1.092046
0.027767 -0.087143 1.148043
-0.001284 -0.080592 1.018502
-0.068310 0.009622 0.944186
0.015585 0.177703 1.041258
-0.199930 0.000685 0.986738
0.059311 -0.210173 1.079251
-0.064734 0.055847 0.925612
-0.109828 0.096653 0.957677
-0.156044 -0.203601 1.247623
-0.105768 0.076564 0.931633
0.240739 -0.047257 1.192184
-0.032232 -0.197215 1.072260
-0.440979 -0.005387 1.085996
0.027229 -0.050370 1.055326
-0.125645 -0.315512 0.973534
0.069045 -0.165143 1.119075
-0.084583 -0.313666 0.954991
-0.267296 -0.300947 1.110421
0.023794 -0.049414 1.044560
-0.111096 0.018796 1.065082
-0.252828 0.150853 1.118992
0.017896 -0.083771 1.065283
-0.126788 -0.055706 1.024247
-0.027205 -0.139735 1.062629
-0.088682 -0.052442 1.028087
-0.298141 -0.317701 1.072323
-0.280174 -0.184649 1.131381
-0.333554 0.108441 1.025700
-0.113277 0.094409 0.942943
-0.043378 0.135404 0.948218
-0.172543 0.117767 0.931686
-0.158202 -0.003672 0.963819
-0.318897 -0.342470 1.052547
0.132523 -0.578749 1.454130
-0.332096 -0.189551 1.232483
-0.193919 0.146219 0.989392
-0.132918 -0.224361 1.070939
-0.135763 0.193177 1.056635
0.132633 0.044450 0.987494
-0.385143 -0.087560 1.113267
0.041405 0.058787 0.958652
0.045412 -0.073450 1.130974
-0.388849 0.029001 1.031613
0.139376 -0.136564 1.202007
-0.317902 0.088545 0.992703
-0.148492 -0.310530 0.981673
-0.248388 0.077137 0.954010
-0.322774 0.086005 0.999933
0.016325 -0.156730 1.066998
0.023119 -0.222922 1.047228
-0.379139 -0.066521 1.110289
0.017200 0.036577 0.947770
-0.025845 -0.258682 1.012942
0.037555 -0.255701 1.049910
